# .PCD v0.7 - Point Cloud Data file format
VERSION 0.7
FIELDS x y z
SIZE 4 4 4
TYPE F F F
COUNT 1 1 1
WIDTH 66
HEIGHT 1
VIEWPOINT 0 0 0 1 0 0 0
POINTS 66
DATA ascii
1.5219239 0.21362232 0.24341206
1.530489 0.20937911 0.24466354
1.5331686 0.20429593 0.2449764
1.5332304 0.18825716 0.24466354
1.5358396 0.18313824 0.2449764
1.5364695 0.17777564 0.2449764
1.5370808 0.17241086 0.2449764
1.5376732 0.16704473 0.2449764
1.5421759 0.16208953 0.24560213
1.5505935 0.15750417 0.24685362
1.5511339 0.15209021 0.24685362
1.5378891 0.14537312 0.24466354
1.5383872 0.14000432 0.24466354
1.5546094 0.13601039 0.24716648
1.5590115 0.13091463 0.24779223
1.5574679 0.12558483 0.24747935
1.5519885 0.1196914 0.24654076
1.5464666 0.11410839 0.24560213
1.5626198 0.10981772 0.24810509
1.5689248 0.10448308 0.2490437
1.5633656 0.098633058 0.24810509
1.5597565 0.092939883 0.24747935
1.5659882 0.087826923 0.24841796
1.5643127 0.082255922 0.24810509
1.5764283 0.077375576 0.2499823
1.5845821 0.072233237 0.25123379
1.5571938 0.06553825 0.24685362
1.5613608 0.060254909 0.24747935
1.5694582 0.055081099 0.24873082
1.5854273 0.050378498 0.25123379
1.5875682 0.044899441 0.25154665
1.5719171 0.038966235 0.2490437
1.5740185 0.033520624 0.24935657
1.582026 0.028167058 0.25060806
1.5860651 0.022700705 0.25123379
1.5782337 0.017078998 0.2499823
1.5703824 0.011512239 0.24873082
1.5664623 0.0060149236 0.24810509
1.5822767 0.00055276329 0.25060806
1.5941212 -0.0050080959 0.25248525
1.582242 -0.010493981 0.25060806
1.5782452 -0.015976978 0.2499823
1.5742295 -0.021432202 0.24935657
1.5860002 -0.026853064 0.25123379
1.6036716 -0.032752089 0.2540496
1.5818245 -0.037830234 0.25060806
1.5698349 -0.043026868 0.24873082
1.5815217 -0.048872437 0.25060806
1.5892385 -0.054664306 0.25185952
1.587064 -0.06013665 0.25154665
1.5848707 -0.065594487 0.25123379
1.5806854 -0.070949167 0.25060806
1.580428 -0.076466359 0.25060806
1.5801657 -0.081706822 0.25060806
1.5877604 -0.087657705 0.25185952
1.5854728 -0.093083709 0.25154665
1.5831666 -0.098494813 0.25123379
1.5788529 -0.10403699 0.25060806
1.5824213 -0.1098211 0.25123379
1.5879388 -0.11577504 0.25217238
1.581616 -0.12086572 0.25123379
1.569392 -0.12516761 0.24935657
1.5768425 -0.13102551 0.25060806
1.5822796 -0.13704026 0.25154665
1.5798241 -0.1423853 0.25123379
1.5733914 -0.1476211 0.25029516
