# .PCD v0.7 - Point Cloud Data file format
VERSION 0.7
FIELDS x y z
SIZE 4 4 4
TYPE F F F
COUNT 1 1 1
WIDTH 1563
HEIGHT 1
VIEWPOINT 0 0 0 1 0 0 0
POINTS 1563
DATA ascii
2.8921862 6.1629558 1.8241568
3.0685523 6.5121579 0.12565732
3.0685036 6.5091085 0.37713292
3.0607378 6.486764 0.62752134
3.0645025 6.4888649 0.88111544
3.0666645 6.490509 1.1369658
3.0568111 6.4638128 1.3898528
3.0706313 6.4871845 1.6569895
2.91699 6.1598053 1.8262272
3.0781121 6.4766617 0.12516867
3.0783381 6.4713025 0.37556285
3.073086 6.454453 0.62542957
3.0672214 6.43924 0.87575316
3.0773993 6.454802 1.1325856
3.0647047 6.4252887 1.3837469
3.0770166 6.4453106 1.6488912
3.0802009 6.4490857 -0.1247498
2.9584653 6.1914191 1.8386506
3.0885973 6.4406338 0.12468
3.0836225 6.4245067 0.37346941
3.0841222 6.4226747 0.62333786
3.0733399 6.3944998 0.87112212
3.0836432 6.4101977 1.1266412
3.0777481 6.3950934 1.3795491
3.0800467 6.3941493 1.6385435
3.0940108 6.4202809 -0.12440075
2.9766991 6.1740956 1.83658
3.0979979 6.4028115 0.12415642
3.0921028 6.3849425 0.37179467
3.093739 6.3826413 0.6205489
3.0869825 6.365871 0.86868477
3.0878856 6.3620758 1.1200709
3.0882998 6.3572798 1.3738248
3.0923824 6.3600349 1.6326947
3.0962932 6.3680782 -0.12359794
3.0100648 6.1879878 1.843827
3.1065249 6.360868 0.12356304
3.1049573 6.3520346 0.37053862
3.1002433 6.3395867 0.61741126
3.1068017 6.3473825 0.86770982
3.0990181 6.3258796 1.1156907
3.0992386 6.323544 1.3688638
3.1042669 6.3282061 1.6272959
3.1090395 6.335146 -0.12317909
3.0846593 6.2826953 1.8754028
3.1127994 6.3176975 0.12293475
3.1182792 6.3232441 0.3694919
3.1073663 6.2983518 0.61444795
3.1139996 6.3062401 0.86356628
3.1140773 6.3008571 1.1131878
3.1021509 6.2739692 1.3604681
3.1159644 6.2963738 1.6218971
3.1169398 6.2955809 -0.12262061
3.1223741 6.2817235 0.12244608
3.1214435 6.2771025 0.36739844
3.1160185 6.2607107 0.61183333
3.114749 6.2526879 0.8577165
3.1234992 6.2675123 1.1091205
3.1073813 6.2297235 1.3532175
3.1213844 6.2523317 1.613349
3.1270802 6.2637405 -0.12220175
3.12304 6.2529101 1.8728148
3.1342297 6.2534571 0.12209704
3.1263189 6.2322493 0.36540967
3.1298091 6.2337694 0.61026448
3.1229913 6.2174911 0.85430413
3.1285014 6.2230377 1.103176
3.1200824 6.2035999 1.3497829
3.1237016 6.2053919 1.6039009
3.1372313 6.2295694 -0.12174799
3.1292005 6.2109165 1.8634971
3.1434066 6.2174945 0.12160837
3.1327264 6.1910024 0.36363026
3.1360648 6.1949158 0.60747552
3.1357048 6.1888433 0.85186678
3.136802 6.1856527 1.098483
3.1328373 6.1751618 1.3459667
3.1347549 6.1736007 1.5985022
3.138129 6.1775746 -0.12094518
3.1412356 6.1810107 1.8578032
3.1487367 6.1744189 0.12098008
3.1470556 6.1657968 0.36279288
3.1386411 6.1466684 0.60381496
3.1428363 6.1495767 0.84796697
3.1394858 6.137733 1.0919127
3.1400654 6.1362243 1.3398608
3.1420739 6.1348677 1.5913037
3.146909 6.1416664 -0.12045651
3.1442816 6.1339078 1.8469328
3.1538079 6.1313815 0.1203518
3.157428 6.1357937 0.3616415
3.1509566 6.1179614 0.60207188
3.1542773 6.1191607 0.84528583
3.1489561 6.1062202 1.0881582
3.138953 6.0816116 1.3303204
3.1581047 6.1134734 1.5886043
3.1544111 6.1063237 -0.11996785
3.1530766 6.1011357 1.8402034
3.1593955 6.092485 0.11979332
3.1604271 6.0892801 0.35954806
3.1575968 6.0786366 0.59928286
3.1580737 6.0769615 0.84089851
3.161135 6.0776672 1.0850296
3.1500397 6.0537543 1.3265042
3.058121 5.8745937 -0.34709209
3.162154 6.0718584 1.5805061
3.1646149 6.0739961 -0.11954898
3.163641 6.0695343 1.8339919
3.1704445 6.0619302 0.11940937
3.1686974 6.0534372 0.35808265
3.1712658 6.055778 0.59806269
3.1691318 6.0465593 0.83821738
3.1740737 6.0508513 1.0822138
3.1592939 6.0201211 1.3215431
3.0897453 5.8851051 -0.34834814
3.159771 6.0159259 1.5688087
3.1709168 6.0345888 -0.11899051
3.1740172 6.0379367 1.8277801
3.184123 6.0366755 0.11913013
3.1748886 6.01408 0.35640791
3.1794829 6.0176873 0.59544802
3.1763029 6.0091362 0.83456135
3.1739316 5.9995737 1.0750178
3.1730683 5.992887 1.3181087
3.1112988 5.8737392 -0.34834814
3.1708479 5.9836421 1.5634098
3.176043 5.9934459 -0.11839712
3.180598 5.9995108 1.8194979
3.1902559 5.9949551 0.11853675
3.1864781 5.9853306 0.35536119
3.1789162 5.9661121 0.59143883
3.192703 5.9869432 0.83309889
3.1818333 5.9640603 1.0706376
3.1810234 5.9575276 1.312766
3.1713028 5.9368348 -0.35274437
3.1806953 5.9519119 1.5580109
3.1846941 5.9593949 -0.11794336
3.1805737 5.9491863 1.8075923
3.1912148 5.9490986 0.11783865
3.1969581 5.9548144 0.35420978
3.1874647 5.9321623 0.58917278
3.19468 5.9431028 0.82846785
3.1914032 5.9320412 1.0668832
3.1775024 5.9037266 1.3032255
3.1871865 5.919251 -0.35232571
3.1911721 5.9241757 1.553512
3.195992 5.9306369 -0.11759432
3.1903186 5.9176431 1.8013806
3.200546 5.9168153 0.11741979
3.2024279 5.9178329 0.3526397
3.1966832 5.9022875 0.58725542
3.1974306 5.898757 0.8238368
3.2054086 5.9110055 1.0650059
3.189661 5.87707 1.299791
3.194489 5.8835158 -0.3508603
3.2025292 5.8958769 1.5490129
3.2060921 5.9024367 -0.11724527
3.2016246 5.8917532 1.7967219
3.2124903 5.8921247 0.11714055
3.20489 5.8733058 0.35065094
3.2077157 5.8736076 0.58551228
3.2007957 5.8585057 0.81969327
3.2089622 5.8685837 1.0593743
3.1949985 5.8406253 1.2940667
3.1909685 5.8308415 -0.34834814
3.2089629 5.8612928 1.5427144
3.2093866 5.8596387 -0.11661698
3.2119586 5.8619065 1.7910279
3.2224991 5.8592854 0.11672169
3.2129107 5.8370252 0.34918553
3.2166648 5.8414321 0.58342052
3.2174547 5.8380427 0.81847459
3.2123244 5.8239179 1.0534298
3.2106919 5.818563 1.291777
3.200737 5.7981238 -0.34709209
3.2181785 5.8273149 1.5368656
3.2192364 5.8268332 -0.11619812
3.2212749 5.8281136 1.7842987
3.2274144 5.8200207 0.11616322
3.2235756 5.80831 0.34813881
3.2225304 5.804039 0.5808059
3.2291374 5.8111591 0.81628096
3.2220719 5.7936797 1.0499883
3.2176211 5.7833009 1.2864343
3.2209556 5.7869163 -0.34709209
3.2233303 5.788805 1.5296671
3.2259336 5.7911024 -0.11570945
3.2237301 5.7847719 1.7744634
3.231122 5.7790465 0.11556984
3.2340765 5.7795939 0.34709209
3.2281706 5.7666779 0.57819116
3.2377582 5.7790704 0.81335604
3.2326164 5.7651668 1.0468596
3.218581 5.7377877 1.2788019
3.2411349 5.7756386 -0.34709209
3.2301633 5.7537279 1.5233686
3.2382965 5.7658577 -0.11543022
3.2306538 5.7499056 1.7672166
3.2375293 5.7433438 0.11508117
3.246382 5.7543526 0.34625471
3.2384894 5.7380223 0.57644808
3.2354577 5.7279787 0.80775005
3.2468843 5.7435327 1.0449823
3.2279577 5.7077203 1.2746042
3.2514424 5.7469053 -0.34604537
3.2406247 5.7254605 1.5188695
3.2465782 5.7336378 -0.11501136
3.2402327 5.7201023 1.7615224
3.2496521 5.7181005 0.11480194
3.2457023 5.7088308 0.34416127
3.2496295 5.7110982 0.57487923
3.2387342 5.687324 0.80360651
3.2434242 5.6932554 1.0377864
3.2410564 5.6844788 1.2719328
3.2467427 5.6921496 -0.34342858
3.2412498 5.6825194 1.5103214
3.25368 5.7019997 -0.11459251
3.2457767 5.6858368 1.7542756
3.2576632 5.6882052 0.11441798
3.2457523 5.6651082 0.3421725
3.2566566 5.6795506 0.57278752
3.2457187 5.6558928 0.80068165
3.2534332 5.6670513 1.0349705
3.2471731 5.6515708 1.2669718
3.1063507 5.4042974 -0.32668105
3.2484214 5.6514664 1.5049226
3.2556264 5.6617079 -0.11399912
3.2540164 5.6566229 1.7485816
3.2655146 5.658319 0.11403403
3.2595098 5.6433697 0.34154451
3.253545 5.6307664 0.56895268
3.2644579 5.6450973 0.80068165
3.2563756 5.6265945 1.0296518
3.2501519 5.6113219 1.2604843
3.1141829 5.3744111 -0.32552966
3.2612913 5.6282887 1.5017732
3.2603278 5.6243572 -0.11347555
3.2592032 5.6201625 1.740817
3.2691302 5.6169324 0.11344065
3.2691181 5.6123986 0.3403931
3.2601161 5.5947042 0.56651235
3.2721248 5.6108031 0.79751301
3.266022 5.5958557 1.0262102
3.2518837 5.5671616 1.2532336
3.1308358 5.3577886 -0.32521567
3.2740314 5.6028385 1.4981741
3.2728457 5.5985603 -0.11319631
3.2671032 5.5864997 1.7340877
3.2724891 5.5755935 0.11284725
3.2765503 5.5802875 0.33913705
3.2745447 5.5724101 0.56546646
3.273546 5.5662622 0.79288203
3.2825317 5.5793123 1.0252717
3.2673113 5.5490098 1.2517071
3.135329 5.3227344 -0.32375026
3.2797239 5.5678678 1.4918754
3.2781534 5.5629821 -0.11270764
3.2777534 5.5600843 1.7294289
3.2848544 5.5543828 0.11263783
3.2746987 5.5350118 0.33704361
3.2848861 5.5478048 0.56407195
3.2768054 5.5297599 0.78922594
3.2818775 5.5361099 1.019327
3.2746742 5.5195718 1.2475092
3.1397119 5.2899785 -0.32238951
3.2772837 5.5217681 1.4824274
3.2863731 5.5348873 -0.11235859
3.2843332 5.529254 1.7232174
3.2950625 5.5297189 0.11235859
3.2817254 5.5029616 0.33578753
3.2889731 5.5129271 0.56163162
3.2829146 5.4984093 0.78630108
3.2869956 5.5008812 1.0149469
3.2828879 5.4918299 1.2436931
3.1613359 5.2863951 -0.32280821
3.2825305 5.4868827 1.4761288
3.2851362 5.4890637 -0.1116605
3.289722 5.4945493 1.7159703
3.2999315 5.4941826 0.11186992
3.2947392 5.4812021 0.33515951
3.2916956 5.4718132 0.55866832
3.2938976 5.4733105 0.78435117
3.2980223 5.4758372 1.0124439
3.2948854 5.4663105 1.2406402
3.1703758 5.2576699 -0.32176149
3.2905412 5.4547901 1.4707299
3.2929163 5.4587274 -0.11127654
3.2909138 5.4532619 1.7066529
3.301399 5.4512625 0.11124164
3.3035042 5.4525852 0.33411276
3.2942469 5.4330311 0.55587929
3.2974606 5.4340467 0.78045136
3.3007147 5.4372749 1.0074381
3.2905023 5.4161835 1.2318629
3.1990809 5.2636395 -0.32280821
3.3034866 5.4332814 1.4680306
3.3088329 5.4420748 -0.11117183
3.2988875 5.4235845 1.7009588
3.3048778 5.4163861 0.11075297
3.3089843 5.4188619 0.33275205
3.3090374 5.4146981 0.5551821
3.2968237 5.3925972 0.7760641
3.3176136 5.422349 1.0068123
3.2920451 5.3784509 1.225757
3.2050474 5.2342649 -0.32165682
3.3123233 5.4073415 1.4639815
3.3163176 5.4117351 -0.11078788
3.3066914 5.3939195 1.6952648
3.3174808 5.3945956 0.11054354
3.3121762 5.3817649 0.33118194
3.315486 5.3850312 0.55326468
3.3031299 5.3607764 0.77313918
3.3157856 5.3771067 1.0005549
3.3015213 5.3518896 1.2223225
3.2233002 5.2230444 -0.32165682
3.3137763 5.3675561 1.4563332
3.320473 5.3763094 -0.11029921
3.3194087 5.3724828 1.6921589
3.3268065 5.3676877 0.1102294
3.3193626 5.3514996 0.33003056
3.3215394 5.3508382 0.55099863
3.3218241 5.3492131 0.77313918
3.3178506 5.3386559 0.99554908
3.3159344 5.3314147 1.2204144
3.2550824 5.2315454 -0.32291287
3.323128 5.3388309 1.4518342
3.32337 5.3392196 -0.10977564
3.3248684 5.3395433 1.6854297
3.335865 5.3384972 0.10988036
3.330611 5.3280258 0.32929787
3.3275182 5.3189411 0.54890686
3.3319259 5.3218598 0.77094555
3.3217878 5.3036036 0.99116892
3.3199232 5.2965217 1.2150718
3.2786305 5.228611 -0.32343623
3.3304627 5.3112707 1.4473351
3.3345504 5.3157277 -0.10953131
3.3321872 5.3099079 1.6797357
3.338634 5.3037138 0.10939168
3.3376169 5.3000517 0.32825115
3.3292027 5.2825942 0.54629219
3.337908 5.2923112 0.76826441
3.3340855 5.2842064 0.98960453
3.3701081 5.3392401 -0.55239308
3.320699 5.2589216 1.2089659
3.3300834 5.2717452 -0.32678574
3.3407712 5.2886653 1.4441857
3.3414733 5.2877383 -0.10918226
3.3301651 5.2678022 1.6699005
3.3412123 5.26897 0.10890301
3.344327 5.2698188 0.32709977
3.342432 5.2647963 0.54559493
3.3341477 5.2477036 0.76338965
3.3461497 5.2625351 0.98772728
3.4015589 5.3476162 -0.55448484
3.3316593 5.235703 1.2062945
3.3506081 5.2634587 -0.32699507
3.3476992 5.2588887 1.4392369
3.3502448 5.2608609 -0.10886811
3.3391929 5.2414808 1.6652418
3.3324964 5.2128835 0.10799549
3.3280981 5.2020068 0.32364559
3.3208919 5.1887426 0.53897113
3.3051775 5.1602268 0.75242138
3.3238423 5.1853757 0.97552538
3.2957029 5.1375294 1.1864504
3.3332028 5.1939917 -0.32343623
3.3122225 5.1612988 1.4158419
3.3295317 5.1862845 -0.10757664
3.3218415 5.1723151 1.6471245
3.3201647 5.1518893 0.10698325
3.3061953 5.1282473 0.31977272
3.3064008 5.1246376 0.53356743
3.3025362 5.1147227 0.74754661
3.3001204 5.1090298 0.96332359
3.2880375 5.0864224 1.1772915
3.3155215 5.1269808 -0.31998208
3.2921219 5.0907969 1.3996454
3.3019965 5.1041126 -0.10611063
3.3010418 5.1006794 1.6279719
3.2991211 5.0821471 0.10576159
3.289463 5.0653276 0.3165279
3.2875471 5.0585165 0.52781516
3.2924178 5.0621433 0.74145311
3.2836466 5.04673 0.95362461
3.2716765 5.0244899 1.1654614
3.3041627 5.0724449 -0.31726059
3.2781415 5.0324979 1.3865983
3.2839696 5.0395222 -0.10499368
3.2651875 5.0087876 1.6020899
3.2743711 5.0075788 0.1044352
3.2712545 5.0009069 0.31317839
3.2693849 4.9942422 0.52223718
3.2624109 4.979795 0.73097235
3.2689645 4.9878998 0.94455141
3.2430968 4.944664 1.1494334
3.2738507 4.989655 -0.3127597
3.2606013 4.9694614 1.3722014
3.2567704 4.9617348 -0.10359748
3.2510285 4.9511032 1.5870785
3.2535608 4.9399137 0.10324844
3.2537565 4.9383287 0.30993357
3.2464437 4.9234939 0.51596195
3.2461057 4.9192443 0.72366023
3.2517498 4.9259267 0.93485248
3.2259278 4.8831029 1.1376033
3.2507374 4.9187851 -0.30899152
3.2459049 4.9114728 1.3591542
3.2555621 4.9242172 -0.10303901
3.2311943 4.8855109 1.5694788
3.2428887 4.8846388 0.10234091
3.2329037 4.865912 0.30616537
3.2391026 4.8733969 0.51195282
3.2267356 4.8511157 0.7153731
3.2378035 4.8640728 0.92546642
3.2166009 4.8303933 1.1280628
3.2388456 4.8619585 -0.30616537
3.2204309 4.8324876 1.3407084
3.2389493 4.858438 -0.10192205
3.2134867 4.8184223 1.551879
3.2321227 4.831737 0.10146829
3.2120919 4.7981687 0.30260652
3.225894 4.8151445 0.50707209
3.2127037 4.7936511 0.70854843
3.2184532 4.7986026 0.91514176
3.2014606 4.7696676 1.1166143
3.2176766 4.7920198 -0.30250186
3.2055211 4.7721219 1.3272111
3.2157466 4.7873445 -0.10066548
3.2044284 4.768692 1.5394558
3.2095659 4.760169 0.10021172
3.2042515 4.7504988 0.30030376
3.1992075 4.7394514 0.50027394
3.2002482 4.737431 0.70196748
3.1986833 4.7333283 0.90481704
3.1784956 4.6999183 1.1028761
3.2097616 4.7443657 -0.30019906
3.1915777 4.7157145 1.3146139
3.1965733 4.7230954 -0.099548534
3.1831462 4.7014885 1.5213385
3.1893835 4.6965628 0.099094771
3.1871347 4.6897287 0.29716361
3.1821196 4.6788301 0.49504462
3.1835592 4.6791954 0.69489902
3.1862817 4.6796794 0.8966825
3.1542749 4.6309385 1.0891378
3.1917367 4.6841807 -0.29705891
3.1742713 4.6567969 1.3011169
3.1860013 4.6722579 -0.098710813
3.1549027 4.624918 1.5001153
3.173013 4.6375399 0.098082528
3.1688247 4.6296892 0.29402342
3.1683426 4.6255155 0.49051252
3.1617141 4.6123838 0.68661195
3.1660323 4.6169562 0.88667065
3.1404285 4.5761933 1.0788342
3.1628535 4.6071463 -0.29287204
3.1585107 4.5991049 1.2880697
3.1675148 4.6122155 -0.097663663
3.1483445 4.5825834 1.4897624
3.1588745 4.5841794 0.097175002
3.1464169 4.562696 0.29046458
3.156177 4.5734324 0.48615471
3.1431572 4.5528665 0.67929977
3.1529343 4.563621 0.87853605
3.1265635 4.5237632 1.068912
3.1474473 4.5522757 -0.29004589
3.1415982 4.5421257 1.2750225
3.1562889 4.5616636 -0.09682595
3.1390347 4.5350308 1.4778568
3.1429226 4.527133 0.096197665
3.1349738 4.51232 0.28795245
3.1372123 4.5138602 0.48092538
3.1318278 4.5027547 0.67345005
3.129349 4.495842 0.86758566
3.1221433 4.4838204 1.062043
3.1347756 4.5002918 -0.28742909
3.1284678 4.4895611 1.2633251
3.1287389 4.4882798 -0.095499568
3.1261122 4.4828482 1.4643983
3.1277623 4.4718895 0.095255233
3.116348 4.4522605 0.2848123
3.1186671 4.4539194 0.47569603
3.1224639 4.4560304 0.66808778
3.1143999 4.4412231 0.85913813
3.1016953 4.421464 1.0498312
3.1240792 4.4517198 -0.28502163
3.1138895 4.4355488 1.2511778
3.1191025 4.4413304 -0.094731666
3.0939887 4.4039359 1.4421397
3.1111009 4.4151754 0.094277903
3.1088514 4.4087095 0.28271887
3.1066308 4.403933 0.47151256
3.1002207 4.3915868 0.66004443
3.1070869 4.3980579 0.85288078
3.0853848 4.3657179 1.0391458
3.1084678 4.3967552 -0.28219551
3.1022484 4.3847065 -0.093754329
3.0836723 4.3568425 1.4302342
3.0894537 4.352108 0.09316095
3.0918334 4.352241 0.27978805
3.0885153 4.345964 0.46645752
3.0844672 4.3370609 0.65346348
3.0972221 4.3517785 0.84599775
3.0653055 4.3053436 1.0273157
3.0844023 4.3305659 -0.27863666
2.2537007 3.1630745 0.8966549
2.2528422 3.160702 -0.067750245
3.0786746 4.3177381 1.4209166
3.0836897 4.3120184 0.092532657
3.0767839 4.2991939 0.27706659
3.0816312 4.3043752 0.46314558
3.0672147 4.281085 0.64663881
3.0790126 4.294385 0.83692449
3.0608623 4.2674971 1.0208282
2.2891133 3.190335 -0.20578501
2.2579093 3.14569 0.89395547
3.0791304 4.2882247 -0.092148706
3.0542822 4.2520485 1.4027992
3.067162 4.257421 0.091590226
3.0660751 4.2527866 0.27476382
2.2598338 3.133337 0.33798996
3.0589061 4.2381592 0.64176404
3.0592864 4.23557 0.82753843
3.0584941 4.2329164 1.0151039
3.0665901 4.2425613 -0.2743451
2.2825794 3.1567385 0.89935428
3.0565772 4.2256012 -0.091031753
3.0532498 4.2194505 1.3955523
3.0573382 4.2127032 0.09085723
2.3121438 3.1835628 0.2062037
3.0436809 4.1892691 0.45303556
3.0433285 4.1857114 0.63542682
3.0635917 4.2104897 0.82472259
3.0519888 4.1914673 -0.27172831
2.3027644 3.1613526 0.90295357
3.0442219 4.1777353 -0.090228938
3.0304084 4.1572495 1.3784703
3.0354376 4.1519628 0.089775175
3.0567751 4.1780825 0.27130961
3.035476 4.1459332 0.44954932
2.3273883 3.175319 0.62354785
3.0050995 4.0969429 0.98762739
3.0425189 4.1464362 -0.26953021
2.32356 3.1654592 0.90655273
3.0363054 4.1364546 -0.089565754
3.0197434 4.112391 1.3670822
2.3272035 3.1576967 0.20557566
2.3167157 3.14117 0.3414762
3.0130832 4.0823712 0.62299615
3.023685 4.0952396 0.80626333
3.0018833 4.0627432 0.9819032
3.0128295 4.0760651 1.1701953
2.3350053 3.1578848 -0.068553053
2.9938719 4.0474648 1.3489649
2.3399642 3.1542122 0.068553053
3.0030138 4.0465145 0.26408726
3.0054185 4.0467982 0.44100806
3.0017385 4.0388975 0.6178776
3.0077851 4.045558 0.79844159
2.9930739 4.0228381 0.97465241
2.3444433 3.1498988 -0.20578501
2.9972408 4.0269709 1.1589478
2.9999006 4.0290799 -0.087680891
2.9980462 4.0251188 1.3448237
2.9954545 4.0099444 0.087366745
2.9884212 3.9976141 0.26157513
2.9997275 4.0112824 0.43821907
2.9901376 3.9955463 0.61275911
2.9911001 3.9939256 0.79030699
2.9863861 3.9861808 0.96816492
2.9992936 4.0019503 -0.26209849
2.9843922 3.9806232 1.1486001
2.9935505 3.9913874 -0.087087512
2.9819355 3.9744513 1.3313652
2.9913998 3.9754956 0.086843178
2.9819324 3.9600358 0.25979573
2.9801464 3.9562266 0.43333834
2.9789717 3.9517963 0.60764056
2.9788527 3.9487665 0.7834239
2.9671679 3.9318535 0.9574796
2.9939883 3.9659538 -0.26042375
2.9759562 3.9406338 1.140052
2.9737146 3.9362371 -0.086110167
2.960845 3.917784 1.3158361
2.9666069 3.9140313 0.085726224
2.9740126 3.9209585 0.25791162
2.9602184 3.9013577 0.42845765
2.9687397 3.9097536 0.6027658
2.9699078 3.9084623 0.77747941
2.9499857 3.8808346 0.94755751
2.9727559 3.909373 -0.25738826
2.9660943 3.899204 1.1310539
2.9644277 3.8955982 -0.085446984
2.9534409 3.8797553 1.3065187
2.9559815 3.8718641 0.085028127
2.9561567 3.8692887 0.25519016
2.9544599 3.8656731 0.42566866
2.9486034 3.8552167 0.59594113
2.964324 3.8729725 0.77247345
2.9324839 3.8299839 0.93763542
2.9535925 3.8561621 -0.25456211
2.9500568 3.8501539 1.1198063
2.9561117 3.8566582 -0.084818691
2.9375775 3.8310964 1.2935777
2.9438808 3.8282323 0.084295124
2.9343183 3.8130457 0.25215468
2.9497061 3.8316548 0.42305395
2.9390221 3.8150241 0.59131008
2.9428492 3.8172317 0.76340026
2.9242516 3.791743 0.93076634
2.9426363 3.8142011 -0.25246868
2.9337139 3.8012643 1.1085589
2.9390025 3.806747 -0.083946079
2.934402 3.7994132 1.2863307
2.9413066 3.7973816 0.083841361
2.9231398 3.7712078 0.25006124
2.9349823 3.7851219 0.41904479
2.9304171 3.7765114 0.58692282
2.9295018 3.7726121 0.75651717
2.9157913 3.7536035 0.92389715
2.9363251 3.778672 -0.25079393
2.9230435 3.7602298 1.0995607
2.9240398 3.7601564 -0.083143272
2.9227376 3.7571254 1.2754604
2.9237919 3.7476759 0.082968742
2.9153907 3.7342188 0.24828181
2.9150646 3.7324579 0.41433838
2.9166875 3.7318506 0.58156055
2.918314 3.7312424 0.75025976
2.8998406 3.7062938 0.91473836
2.9322624 3.7463813 -0.24932852
2.9181321 3.7269874 1.0928122
2.9149532 3.7215889 -0.082514979
2.9048553 3.7073638 1.2620018
2.9072044 3.6997104 0.082131028
2.9074209 3.6973288 0.24650237
2.9059033 3.694072 0.41120079
2.9051399 3.69045 0.57668579
2.9056497 3.6884477 0.74368954
2.888458 3.6653082 0.90710598
2.9193544 3.7031851 -0.24713041
2.9094019 3.6892357 1.0847139
2.9031546 3.6799929 -0.081816882
2.8890545 3.6608059 1.2495784
2.8971596 3.6592424 0.081467837
2.9041896 3.6668031 0.24514163
2.8996232 3.6584132 0.4084118
2.8939743 3.6486726 0.57181102
2.8976355 3.6519754 0.73837078
2.8750138 3.620872 0.89871037
2.896884 3.6471052 -0.24409491
2.9010835 3.6510835 1.0766158
2.8960791 3.6447854 -0.081258401
2.8777733 3.6204534 1.2392256
2.8905821 3.626159 0.080944255
2.8796055 3.6098037 0.24200147
2.8862717 3.6155708 0.40475124
2.8800454 3.6064804 0.56669247
2.8857002 3.610976 0.73211342
2.8698437 3.5898492 0.89336777
2.8902504 3.6140821 -0.24252485
2.8754358 3.5942712 1.0626688
2.8812947 3.6003065 -0.080490492
2.8746989 3.59078 1.2324963
2.8856943 3.5942173 0.080455594
2.8684216 3.5701468 0.24001274
2.8770258 3.5795796 0.40178797
2.8764441 3.5762951 0.56352389
2.868561 3.5639498 0.72460455
2.8675828 3.5614583 0.88878828
2.8840566 3.5806389 -0.24095476
2.867178 3.5584157 1.0550205
2.8750219 3.5668731 -0.079966925
2.8666024 3.5551572 1.2236965
2.8718193 3.5514679 0.079722598
2.8620181 3.5368254 0.23844264
2.8619254 3.535445 0.39795309
2.8651667 3.5369275 0.55889291
2.8660572 3.5354996 0.72085011
2.8466072 3.5102575 0.87848467
2.8713715 3.5395291 -0.23886132
2.8611636 3.5256877 1.0482719
2.8559456 3.5180032 -0.079094306
2.846112 3.5046399 1.2097203
2.8538923 3.5042081 0.078884877
2.8579443 3.506686 0.2370819
2.8478115 3.4930046 0.39429256
2.8486335 3.4915273 0.55328691
2.8546436 3.4964013 0.71490556
2.8364899 3.4729292 0.87161553
2.8584366 3.4985504 -0.23676789
2.8586531 3.4975729 1.042873
2.8555498 3.492532 -0.078745253
2.8412063 3.473748 1.2024734
2.839473 3.4617586 0.078151874
2.8498933 3.471987 0.23540714
2.8448122 3.4645667 0.39220083
2.8355997 3.450887 0.54841208
2.849267 3.4650538 0.71052545
2.8261466 3.4357142 0.86474639
2.8414409 3.4530818 -0.23436043
2.84236 3.4529672 1.0325253
2.8461151 3.4562998 -0.078151874
2.8287463 3.433989 1.1921207
2.8362577 3.4333248 0.077733018
2.8295851 3.4240272 0.23279037
2.8416526 3.4361901 0.39010909
2.8185182 3.4057939 0.54280609
2.8355474 3.4251547 0.70426804
2.8193345 3.4031513 0.85902214
2.8292634 3.4139233 -0.23237166
2.8227074 3.4060123 1.0212778
2.8371415 3.4222105 -0.077593401
2.822854 3.4037707 1.1848736
2.8310051 3.4039128 0.077279255
2.8179286 3.3869905 0.23090626
2.822437 3.3899989 0.38592559
2.8209012 3.3857534 0.54109991
2.8203318 3.3838658 0.69769776
2.8129988 3.3726761 0.85367942
2.8303335 3.3922534 -0.2315343
2.8140121 3.3726916 1.0140793
2.8215649 3.3805444 -0.076860398
2.8106005 3.3662162 1.1750386
2.8166013 3.363843 0.076581158
2.8143418 3.358762 0.22965018
2.8080652 3.3500831 0.38243937
2.8053241 3.3444409 0.53598142
2.8168859 3.355845 0.69394338
2.8007631 3.3342736 0.84642875
2.8215985 3.357888 -0.22985955
2.8107231 3.3449452 1.0086806
2.8063266 3.3385298 -0.076127395
2.7987115 3.3282912 1.1652035
2.8005445 3.3198709 0.075813256
2.8060195 3.3240066 0.22797546
2.7971857 3.3123691 0.37930179
2.8034685 3.3174593 0.53330034
2.7985544 3.3092973 0.68643451
2.7825267 3.2880192 0.8372699
2.8106594 3.3200841 -0.22797546
2.8065963 3.3152845 1.0028318
2.8043277 3.3114362 -0.075743444
2.7821698 3.2841094 1.1532978
2.7893846 3.2821558 0.075184964
2.7956138 3.2883222 0.22619602
2.7873607 3.2762964 0.37633851
2.7821517 3.2678621 0.52696311
2.8024035 3.2904856 0.68455732
2.7748859 3.2558727 0.83154565
2.7924275 3.2752972 -0.22556801
2.7966576 3.2802584 0.99518347
2.796406 3.2788041 -0.075219877
2.7798247 3.2582107 1.1476036
2.7820523 3.251616 0.074696302
2.774035 3.2411003 0.22357923
2.7839522 3.2503901 0.37442106
2.7787633 3.2420378 0.52428192
2.7811542 3.2436843 0.67673558
2.7703271 3.2287719 0.82696623
2.7798579 3.2387393 -0.22368389
2.7707117 3.2280834 0.98213631
2.7812095 3.2391698 -0.074521773
2.7755103 3.2313881 1.1413921
2.7771602 3.2241902 0.074277438
2.7670748 3.2102182 0.22211383
2.7647917 3.2064347 0.37041187
2.7583728 3.1967366 0.5184322
2.7718048 3.2100339 0.67172968
2.7656186 3.20174 0.82238686
2.778831 3.2159011 -0.22274184
2.7615738 3.1948025 0.97493786
2.7650332 3.1976764 -0.073788777
2.7614954 3.1924589 1.1310393
2.7674313 3.1903081 0.073718965
2.7638624 3.1839478 0.22096242
2.7459209 3.1621644 0.36640272
2.7682135 3.1855896 0.51818854
2.758364 3.1720178 0.66578513
2.7535832 3.1654046 0.81551766
2.7808611 3.1956358 -0.22200914
2.7586339 3.1689758 0.96998894
2.7591054 3.168401 -0.073335014
2.7472448 3.1536663 1.1206865
2.7509224 3.1490035 0.072985962
2.7578716 3.1547322 0.21960169
2.7516954 3.1465616 0.36570549
2.746635 3.1385603 0.51209503
2.7590091 3.1504807 0.66328222
2.742624 3.1306684 0.80903018
2.7656715 3.1558683 -0.2199157
2.7568331 3.1446729 0.96548992
2.747735 3.1331913 -0.072741628
2.7429459 3.1266327 1.1144749
2.7407653 3.1153591 0.072427489
2.7464304 3.1196024 0.21782227
2.7323763 3.1025469 0.3616963
2.7313228 3.0991688 0.50722027
2.7490847 3.1171257 0.65827632
2.7236617 3.0872159 0.80025297
2.7475958 3.1132495 -0.21761292
2.7432888 3.1072731 0.95694178
2.7440934 3.1070943 -0.072357684
2.7269838 3.0866354 1.1036046
2.7383616 3.090806 0.072078437
2.7329147 3.0835733 0.21593818
2.7379024 3.0870271 0.36099908
2.7276306 3.0732839 0.50453913
2.7384214 3.0843577 0.65327036
2.7213824 3.0630121 0.79643679
2.7358916 3.0782604 -0.2158335
2.7282197 3.068553 0.94794375
2.7371082 3.0785501 -0.071903922
2.7243664 3.0631392 1.0984281
2.7299609 3.060816 0.071589775
2.7250433 3.0531533 0.21447276
2.7287524 3.055162 0.3583844
2.7206123 3.0449784 0.50137055
2.7202041 3.0423834 0.64638728
2.7145092 3.0349481 0.79147577
2.726109 3.0468438 -0.21426344
2.7149873 3.0333512 0.93984544
2.7184925 3.036201 -0.071136013
2.7092645 3.0248291 1.0880753
2.7192495 3.0274639 0.071031295
2.7143214 3.0198565 0.21279801
2.7082288 3.0120208 0.35437521
2.7179465 3.0207071 0.49893317
2.7149472 3.0152533 0.6426329
2.7053771 3.0035734 0.78575146
2.7220194 3.0209897 -0.21311203
2.707294 3.0035896 0.93354684
2.707648 3.0029314 -0.070577532
2.7055717 2.9995759 1.0823812
2.7043142 2.9897754 0.070368104
2.7208261 3.0059206 0.21248402
2.6959934 2.9774413 0.35141194
2.7084811 2.9891348 0.49527705
2.7121847 2.9911261 0.63950419
2.6934228 2.9693902 0.77926397
2.721812 2.9996362 -0.21227466
2.7177598 2.994123 0.93354684
2.7073607 2.9816177 -0.070298299
2.7056355 2.9786732 1.0782403
2.7147336 2.9803178 0.070368104
2.7353392 3.0008318 0.21279801
2.7184515 2.9812627 0.35298076
2.7202375 2.9811277 0.49552077
2.7292695 2.9889333 0.64106852
2.7156887 2.9730155 0.78269857
2.7268765 2.9842198 -0.21185598
2.7229366 2.9788637 0.93174726
2.7352951 2.991333 -0.070752062
2.7147119 2.9677854 1.0777225
2.7386386 2.9855592 0.070717148
2.7336402 2.9780257 0.21185598
2.7396226 2.9834948 0.35437521
2.7279387 2.9686928 0.49503332
2.7423615 2.982296 0.64169425
2.7313647 2.9692993 0.78422499
2.7426872 2.9805613 -0.21227466
2.730679 2.9664724 0.93084741
2.7497835 2.9861803 -0.070856772
2.7329085 2.9668157 1.0808283
2.7517567 2.9789197 0.07078696
2.7453752 2.9699309 0.21196064
2.7500198 2.9739139 0.35437521
2.7517681 2.973722 0.49747071
2.7527544 2.9727056 0.64169425
2.7457161 2.964067 0.78536987
2.7652931 2.9841533 -0.21321672
2.7410166 2.956923 0.93084741
2.7520316 2.9677665 -0.070647344
2.7432489 2.9572573 1.0808283
2.7703097 2.9780819 0.070996389
2.7693329 2.9749491 0.21300736
2.7603831 2.9642971 0.35437521
2.7743108 2.9771693 0.49966437
2.7631149 2.9630778 0.64169425
2.7627416 2.9616437 0.787278
2.7797804 2.978864 -0.21353073
2.7646203 2.9615817 0.93534642
2.7691975 2.96545 -0.070821866
2.754873 2.9490757 1.0813459
2.7793214 2.9669328 0.070961483
2.7865314 2.9725494 0.21353073
2.7761662 2.9604564 0.3550725
2.7846868 2.9674664 0.49966437
2.7788496 2.9591751 0.64294571
2.771719 2.9505498 0.78689629
2.7969995 2.9764199 -0.21405408
2.782949 2.960433 0.93804586
2.7877524 2.9645057 -0.071031295
2.7638261 2.9380352 1.0808283
2.7924051 2.9601233 0.071031295
2.8064883 2.97297 0.21426344
2.7919545 2.956543 0.35576975
2.7950289 2.9577272 0.49966437
2.7986636 2.9595032 0.64513582
2.7806532 2.93943 0.7865147
2.7963891 2.955034 -0.21321672
2.7972863 2.9549458 0.93939561
2.807709 2.9649198 -0.071275629
2.7846935 2.9395905 1.0849695
2.8082309 2.9561565 0.071170911
2.8072162 2.9530232 0.21353073
2.8132422 2.9583285 0.3571642
2.8053358 2.9479532 0.49966437
2.8144255 2.9554384 0.64638728
2.8030834 2.9424999 0.7899493
2.8177106 2.956821 -0.21405408
2.7995152 2.9367011 0.93669617
2.8194206 2.9565485 -0.071310528
2.8029385 2.9382377 1.0880753
2.828208 2.9564512 0.071415246
2.8216505 2.9475334 0.21384473
2.8221731 2.947052 0.35698992
2.8211036 2.9438751 0.50063932
2.8178883 2.9384687 0.64482296
2.8228524 2.9426141 0.7926206
2.8335466 2.9527304 -0.21447276
2.8151467 2.9325347 0.93849587
2.8255696 2.9423614 -0.071205825
2.8158557 2.931222 1.0891106
2.8468356 2.9552009 0.071624674
2.8416238 2.9477339 0.21457745
2.8324437 2.9371822 0.35698992
2.8410096 2.9440103 0.5023455
2.8404789 2.9414024 0.6476388
2.8317406 2.9313323 0.79223901
2.8479998 2.9471309 -0.21478678
2.8402658 2.9381015 0.94344473
2.8399911 2.9367945 -0.071310528
2.8220401 2.9172096 1.0875577
2.8515654 2.9395041 0.071485057
2.8644166 2.9506931 0.21551949
2.8440678 2.9287057 0.3571642
2.8568032 2.9397693 0.5033204
2.8493507 2.9300532 0.64732587
2.8446941 2.9242437 0.79300219
2.8638422 2.9428964 -0.21520546
2.8627379 2.9407375 0.94749385
2.861387 2.9383235 -0.071589775
2.8362508 2.9114919 1.0891106
2.8687937 2.9366865 0.071659587
2.8727911 2.939749 0.21541482
2.8654158 2.9301579 0.35855874
2.8601067 2.9226849 0.50210178
2.878397 2.9403515 0.6517061
2.8548851 2.9142952 0.79300219
2.8726974 2.931457 -0.2151008
2.8729861 2.9307258 0.94749385
2.8823147 2.9402418 -0.071869008
2.8580627 2.914485 1.0937693
2.8869295 2.9357109 0.071869008
2.8802314 2.9268582 0.21520546
2.8812189 2.9258156 0.35925597
2.876749 2.920254 0.5033204
2.8914175 2.9330988 0.65233177
2.8755627 2.9159944 0.7960552
2.8866115 2.9261796 -0.21541482
2.884057 2.92257 0.94794375
2.896776 2.9344313 -0.071973726
2.8750052 2.9113643 1.0963575
2.8999746 2.9284568 0.07193882
2.8946486 2.9210415 0.21551949
2.8965173 2.9219043 0.35995319
2.8967094 2.9200616 0.50502658
2.8946795 2.9159789 0.65076745
2.8940217 2.914299 0.79834485
2.9080696 2.9274201 -0.21625218
2.8969893 2.9152489 0.9488436
2.90136 2.9186308 -0.071834102
2.8987734 2.9150083 1.1015339
2.9144146 2.922565 0.072043538
2.9161146 2.9222291 0.21635687
2.9024751 2.9075458 0.35943025
2.9139001 2.9169538 0.50624532
2.9146173 2.9156356 0.65295756
2.9125068 2.9125078 0.80063456
2.9267452 2.9257245 -0.21688022
2.9195533 2.9175165 0.95289266
2.9157755 2.9127247 -0.07193882
2.9007285 2.8966823 1.0984281
2.920347 2.9081414 0.07193882
2.9362068 2.9218943 0.21708956
2.9196692 2.9044235 0.36030185
2.9268794 2.9095643 0.50673276
2.9303834 2.9110117 0.65420902
2.9170833 2.896791 0.79910809
2.9440265 2.9225266 -0.21740359
2.944936 2.9224062 0.95784163
2.9358618 2.9123876 -0.072183155
2.91768 2.8933408 1.1010163
2.9418559 2.9091773 0.072218053
2.9506509 2.9158382 0.21740359
2.9382949 2.9026146 0.36134771
2.9327805 2.8951452 0.50600159
2.9517767 2.9118638 0.656712
2.9257801 2.8852117 0.7987265
2.9399872 2.89821 -0.21635687
2.9565067 2.9134772 0.95829147
2.9559832 2.9119444 -0.072427489
2.9360216 2.8912711 1.1041222
2.9591262 2.9058969 0.072392583
2.9551086 2.8999259 0.21698491
2.9612086 2.9048977 0.3629165
2.9485395 2.8904481 0.50697654
2.9647443 2.9043076 0.65733767
2.9428475 2.8818481 0.80063456
2.9686396 2.9060936 -0.2177176
2.9596934 2.8963249 0.95604193
2.9689894 2.9044044 -0.072497301
2.9585264 2.893162 1.1087809
2.9821374 2.908114 0.072706729
2.9709353 2.8951678 0.21740359
2.9699044 2.8931525 0.36274219
2.9657226 2.8870621 0.50819516
2.9805272 2.8994513 0.65858912
2.9711859 2.8893521 0.80559564
2.9759021 2.8929281 -0.21750826
2.9795699 2.8954823 0.95919132
2.9762402 2.891237 -0.072427489
2.9783094 2.8922372 1.1124043
2.9937065 2.8990786 0.072741628
2.989634 2.8931136 0.21803163
2.9799845 2.8827686 0.36274219
2.9914813 2.8918698 0.51087636
2.9877896 2.8862844 0.65796345
2.9826665 2.8803263 0.80597723
3.0032248 2.8991694 -0.21876432
2.9910603 2.8864176 0.95964122
2.9906328 2.8849945 -0.072532199
2.9800429 2.8737779 1.1092985
3.0009258 2.8858378 0.072671816
3.0112348 2.8937321 0.21886899
2.9943404 2.8764889 0.36326513
3.0015571 2.8814104 0.51087636
3.0121024 2.8895111 0.66109216
2.9912837 2.8685403 0.80559564
3.016211 2.891432 -0.21897365
3.0137813 2.8880935 0.96369034
3.0107908 2.884223 -0.072776534
3.0026145 2.8753827 1.1139573
3.0196574 2.8836319 0.072881252
3.0270979 2.8887177 0.21928766
3.0144553 2.8756454 0.36448529
3.0101602 2.8695447 0.51063257
3.0307512 2.8871553 0.66296935
3.0140748 2.8702655 0.80903018
3.0277331 2.8822622 -0.21907835
3.0309017 2.8842733 0.96593982
3.0280857 2.8805866 -0.072951064
3.0154335 2.8675456 1.1149925
3.0355082 2.8785784 0.073020868
3.0328133 2.8740132 0.21897365
3.0389371 2.8788095 0.36622843
3.0302508 2.868572 0.51233876
3.0408115 2.8765576 0.66296935
3.0155177 2.8516328 0.80674046
3.0421278 2.8757942 -0.21939236
3.0338705 2.8669829 0.96369034
3.0453913 2.8768642 -0.073125578
3.0352545 2.8662887 1.1186159
3.0571854 2.8789318 0.073300108
3.0423267 2.8639405 0.21897365
3.046066 2.8654532 0.36587983
3.0402451 2.8579779 0.51233876
3.0532122 2.869164 0.66359508
3.0426266 2.8572173 0.81131989
3.0608852 2.8733582 -0.22002037
3.0467024 2.8590415 0.96459007
3.0549152 2.8667486 -0.073125578
3.0475616 2.8588502 1.1196512
3.0754783 2.8769739 0.073509537
3.0683553 2.8683054 0.22012506
3.061873 2.860244 0.36657706
3.0642138 2.8614292 0.51477611
3.0646529 2.8598375 0.663908
3.0606976 2.8551474 0.81360966
3.0806229 2.8727264 -0.2207531
3.0704191 2.8622122 0.96908909
3.0766053 2.866976 -0.073404826
3.061764 2.8521447 1.1212041
3.0767095 2.8580573 0.073300108
3.0827413 2.8616531 0.22043908
3.074261 2.8527853 0.36692566
3.0800066 2.8561141 0.51575112
3.0818617 2.8558345 0.66547227
3.0648849 2.8391087 0.81208313
3.0935602 2.8646715 -0.22096242
3.0803921 2.8514764 0.96908909
3.0909984 2.8602927 -0.073509537
3.0759549 2.845376 1.1227571
8.9954319 8.297843 0.21361746
9.0093918 8.3049011 0.64216226
8.9947319 8.2884846 1.0700982
8.9938765 8.2818928 1.5011867
8.2521009 7.5935111 1.776157
6.2608104 5.7591305 1.6535509
5.2825375 4.8558393 1.6565396
9.005456 8.2751465 -0.21347784
4.5541091 4.183322 1.6569597
9.0081205 8.2515364 0.2132335
9.007391 8.24508 0.63996416
9.0044994 8.2395535 1.0678321
9.0080833 8.2370501 1.4987493
8.2610569 7.5486717 1.7724028
6.2895746 5.7451839 1.6558405
3.9113996 3.5715988 -0.27758995
5.2879405 4.8268614 1.6529404
9.0195169 8.2301798 -0.21312879
4.5758209 4.1739078 1.6595478
9.0324335 8.2160025 0.21312879
9.016902 8.196126 0.63860339
9.025836 8.2013702 1.0669606
9.0206146 8.1908798 1.4960682
8.2639484 7.4985518 1.7673968
6.3154054 5.7284713 1.6573671
3.9238422 3.5579245 -0.27758995
5.3033118 4.8070655 1.6524904
9.0170746 8.1704464 -0.2123958
4.5903621 4.1579108 1.6595478
9.0461569 8.1681023 0.21274483
9.0365629 8.1565685 0.63797539
9.0292025 8.1442156 1.063823
9.041729 8.149785 1.4946058
8.2709932 7.4524713 1.7633295
6.3363609 5.7052841 1.6573671
4.0318623 3.6290345 -0.28428894
5.3266907 4.7928081 1.6542901
9.0381041 8.1322355 -0.21222126
4.5976677 4.1354017 1.6569597
9.046401 8.1140223 0.21211654
9.0530796 8.1143131 0.63713801
9.0368004 8.0940351 1.0613827
9.0509567 8.1038685 1.4916809
8.2807665 7.4090643 1.7598881
6.3479276 5.6776981 1.6554589
3.9485855 3.5304441 -0.27758995
5.3454599 4.7777157 1.6551899
9.0470486 8.0833178 -0.21176751
4.6163964 4.123189 1.6585126
9.0552578 8.0651035 0.21166278
9.0649366 8.068058 0.63598657
9.0516853 8.0534267 1.0599881
9.0465508 8.04321 1.4863187
8.297719 7.3722401 1.7580107
6.3647709 5.6528993 1.6546957
9.0628414 8.0463657 -0.63514924
5.3635635 4.7603202 1.6556398
9.0692253 8.0463829 -0.21162789
4.6293163 4.1057663 1.6579949
9.0683718 8.0202045 0.21131374
9.0691013 8.0152025 0.63431185
9.0677919 8.0112343 1.0585936
9.056716 7.9958138 1.4833938
8.2982197 7.3210149 1.752692
6.3903556 5.6358399 1.6562221
9.078886 8.004117 -0.63431185
5.3640642 4.7273965 1.6506908
9.0777531 7.997488 -0.21117412
4.6508684 4.0959673 1.660583
9.0842934 7.9779425 0.21103451
9.0715027 7.9611025 0.63253242
9.0747347 7.9611359 1.0561533
9.0771055 7.9576106 1.4821751
8.2954941 7.2672701 1.7467474
6.4114652 5.6147938 1.6566037
5.3790689 4.7073588 1.6502409
4.6651368 4.0797091 1.660583
9.0909891 7.9277806 0.21054582
9.0871935 7.9188886 0.63169503
9.076931 7.9071598 1.05319
9.083868 7.9076266 1.4787627
8.3088837 7.2279034 1.7442445
6.4295454 5.5910892 1.6562221
3.3719428 2.9311857 -0.23415108
5.4028187 4.6949487 1.6524904
3.3499072 2.9099782 -0.077453777
4.670598 4.0557981 1.6574773
9.0913944 7.8724384 0.20991755
9.1027002 7.8766627 0.63085771
9.0924206 7.8650017 1.0517955
9.0994034 7.8654823 1.4768128
8.3131361 7.1807752 1.7398643
6.4356508 5.5570626 1.6527877
3.3609869 2.9011276 -0.23268569
5.4221268 4.6786051 1.6533903
3.3539879 2.8930414 -0.077314161
4.6847262 4.0394711 1.6574773
9.1066914 7.830224 0.20963831
9.1119547 7.829227 0.6296016
9.1062193 7.8215294 1.0502267
9.0996847 7.8104067 1.4724256
8.3231592 7.1388507 1.7367356
6.4564958 5.5358462 1.6531693
3.3422811 2.8646815 -0.2306969
5.4310269 4.6533089 1.6511407
3.3458393 2.8657086 -0.076895304
4.7032013 4.0268617 1.6590302
9.1202755 7.7867079 0.20932417
9.1105242 7.7756262 0.62771749
9.1274004 7.7845254 1.0495294
9.1057434 7.7605658 1.4690132
8.3302488 7.0971174 1.7332941
6.481761 5.5183644 1.6546957
3.3385725 2.8413465 -0.22975488
5.4368458 4.6254845 1.6479914
3.3400939 2.8416388 -0.076546252
4.7209435 4.0149989 1.660583
9.1353731 7.747365 0.20907983
9.1223764 7.7308626 0.62667084
9.1271486 7.7294426 1.0463918
9.1208248 7.7213459 1.4673071
8.3263121 7.0437613 1.7273496
6.5120196 5.5069799 1.6577487
3.3342466 2.8186572 -0.22881283
5.4625726 4.6162362 1.6511407
3.3224971 2.8067338 -0.075917974
4.7349305 3.9984941 1.660583
9.1409483 7.6973939 0.20859116
9.1355495 7.6873999 0.62572873
9.1222382 7.6734791 1.0429056
9.1416416 7.6843538 1.4663321
8.3357239 7.001946 1.7242209
6.5176697 5.4728541 1.654314
3.3211198 2.787739 -0.22724274
5.4756689 4.5946336 1.6502409
3.3154204 2.7809832 -0.075534016
4.7429371 3.9769776 1.6585126
9.143219 7.6449142 0.2080327
9.1531305 7.6477828 0.62510073
9.1321487 7.6275382 1.0409881
9.1455479 7.6333189 1.462676
8.3403931 6.9563603 1.7201536
6.5352244 5.4488134 1.6539325
3.3231599 2.7697346 -0.22671939
5.4946675 4.5779872 1.6511407
3.3097415 2.7565963 -0.075184964
4.7523375 3.9566882 1.6569597
9.1944637 7.6333909 0.20859116
9.2120523 7.6425633 0.62729883
9.2031927 7.6325016 1.0460433
9.1369848 7.5722127 1.45707
8.3539762 6.9183826 1.7179635
6.5511813 5.4234629 1.6531693
3.3035724 2.7339246 -0.22473061
5.5121164 4.5600204 1.6515907
3.3116393 2.7386537 -0.075010449
4.7690969 3.942538 1.6579949
9.2395678 7.6165152 0.20901002
9.1541615 7.5327058 1.4556075
8.3567162 6.8716121 1.7135834
6.5791721 5.4080434 1.6554589
3.2976646 2.7096953 -0.22368389
5.5174608 4.5320921 1.6484413
3.2964513 2.706774 -0.074451968
4.7902975 3.931994 1.660583
9.2970448 7.6095495 0.20970812
9.2775517 7.588181 0.62813622
9.2793865 7.5869861 1.0486579
9.1650314 7.4881444 1.4531702
8.3546371 6.8211632 1.7082645
6.5995326 5.3862844 1.6558405
3.2931736 2.6868069 -0.22274184
5.5332465 4.5128059 1.6484413
3.2764328 2.6712415 -0.073788777
4.7980022 3.9103677 1.6585126
13.157457 10.681345 1.4826934
9.1818628 7.4486051 1.4517077
8.3461733 6.7658334 1.7016943
6.615242 5.3607445 1.6550773
3.2932212 2.6677513 -0.22211383
5.5519953 4.4959149 1.6493411
3.2779651 2.6534984 -0.073614255
4.8071165 3.8899512 1.6569597
13.248957 10.67911 1.4887943
9.1908026 7.4028091 1.4490266
8.3574257 6.7267566 1.6991913
6.623208 5.3290033 1.6524061
3.2900636 2.6462243 -0.22127645
5.5737267 4.4813957 1.6511407
3.274739 2.6320167 -0.073335014
4.8176551 3.8707261 1.6559243
13.385708 10.712475 1.4999503
9.1871338 7.3471231 1.4443955
8.3685122 6.687675 1.6966884
6.6402364 5.3046241 1.6520243
3.2555811 2.5998278 -0.21834564
5.5862913 4.4594793 1.6502409
3.274529 2.6130853 -0.073125578
4.8371768 3.8587055 1.6579949
13.522858 10.745008 1.5111063
9.1816254 7.2903271 1.4395207
8.3705311 6.6439195 1.6926211
6.658709 5.2814178 1.6520243
3.2599418 2.5847242 -0.21803163
5.5979958 4.4385071 1.6493411
3.2675042 2.5897915 -0.072776534
4.8560028 3.8474438 1.6600655
13.653817 10.775399 1.5217392
9.2104292 7.263525 1.4402521
8.3614902 6.5916681 1.6863638
6.6869836 5.2678103 1.6546957
3.2716327 2.5763717 -0.21824095
5.6065588 4.4150977 1.6475415
3.2446473 2.5542061 -0.072078437
4.8687353 3.8313181 1.6600655
13.705158 10.74235 1.5234824
9.2141476 7.2170315 1.4370835
8.3611135 6.5441804 1.6816708
6.702239 5.2420149 1.6539325
3.2428434 2.5354121 -0.21572883
5.6280761 4.4003024 1.6493411
3.2440908 2.5354753 -0.071869008
4.8699021 3.8047833 1.6559243
13.760161 10.704282 1.5252254
9.2170277 7.1649384 1.4334273
8.3710041 6.5025821 1.6788548
6.7121 5.2101932 1.6516427
3.252115 2.5235085 -0.21572883
5.6441674 4.3796439 1.6493411
3.2359819 2.5100853 -0.071485057
4.8853402 3.7880938 1.6564419
13.810339 10.662302 1.5264456
9.1976519 7.0959373 1.4263589
8.3838282 6.4634166 1.6766648
6.7249308 5.1807671 1.6501163
3.2328577 2.4896371 -0.21384473
5.6617241 4.3601174 1.649791
3.2356536 2.4908884 -0.071275629
4.9037838 3.7736981 1.6579949
13.860396 10.6201 1.527666
9.1778889 7.027184 1.4192905
8.3886375 6.4182391 1.6729103
6.7298374 5.1453495 1.6466817
3.2245066 2.4644301 -0.21269335
5.6637335 4.3286858 1.6457419
3.2320487 2.469301 -0.070996389
4.926795 3.7627337 1.6611006
13.908224 10.583727 1.5290602
9.185338 6.9846964 1.4168531
8.4114456 6.3915825 1.6732231
6.763166 5.1372466 1.6508795
3.2242789 2.4482493 -0.21216999
5.6796079 4.311059 1.6461918
3.2163234 2.440439 -0.070472814
4.9330897 3.741704 1.6590302
13.943498 10.53391 1.5288861
9.192234 6.939436 1.4141719
8.4305534 6.3598008 1.6725975
6.7779212 5.1112447 1.6501163
3.2280216 2.4333723 -0.21185598
5.702405 4.29707 1.6484413
3.2024608 2.4123533 -0.069984153
4.9368601 3.71749 1.6559243
13.989743 10.492349 1.5299319
9.1893988 6.8870664 1.4100285
8.4626617 6.3401017 1.6747875
6.7878642 5.0816689 1.6482083
3.2284999 2.4161062 -0.2113326
5.7236104 4.2818093 1.6502409
3.2024372 2.39573 -0.069809623
4.9476132 3.6999424 1.6554067
14.042262 10.455354 1.531675
9.1898947 6.8399591 1.4066161
8.4879103 6.3128819 1.6754133
6.7841978 5.0439024 1.6432471
3.2012286 2.3791759 -0.20902982
5.7377768 4.2628064 1.6502409
3.1995435 2.3761904 -0.069565296
4.9698057 3.6895576 1.6585126
14.096082 10.422941 1.5337667
9.210516 6.8054857 1.4061285
8.5083065 6.2820396 1.6751004
6.8175573 5.0318503 1.6470633
3.2046921 2.3644307 -0.20871581
5.7463498 4.2381239 1.6484413
3.2013807 2.3602598 -0.069425672
4.9810982 3.671042 1.6579949
9.2775869 6.8125758 0.60322434
14.138806 10.378385 1.534464
8.5238104 6.2476325 1.673849
6.8414145 5.0126653 1.6485898
3.20487 2.3473279 -0.20819245
5.7548184 4.2134356 1.6466417
3.2031438 2.3443487 -0.069286056
5.0001206 3.6581938 1.6600655
14.179771 10.332499 1.534987
9.2626209 6.7445202 1.4068599
8.5460768 6.2204967 1.6741619
6.8556962 4.9864421 1.6478267
3.2308118 2.3490486 -0.20934384
5.7821031 4.2024865 1.6502409
3.2222242 2.3419425 -0.06953039
5.0012822 3.6336448 1.6564419
9.4283047 6.8299737 0.20321584
9.435379 6.8300714 0.61044663
14.22544 10.28994 1.5360328
9.2656336 6.6998057 1.403935
8.5741434 6.1952519 1.6754133
6.8610544 4.9556317 1.6451553
3.2580163 2.352351 -0.21059991
5.7960067 4.1832905 1.6502409
3.235245 2.3341897 -0.069635101
5.0092349 3.6127763 1.6548891
14.278906 10.256655 1.5381246
9.2567062 6.644278 1.3990601
8.6037445 6.1710396 1.6769776
6.8735209 4.9282241 1.6440103
3.2402344 2.3223469 -0.20892516
5.8137426 4.1653013 1.6511407
3.2742612 2.3450077 -0.070298299
5.023387 3.5963919 1.6554067
14.316242 10.20791 1.5382988
9.2766113 6.6096187 1.3985727
8.6204052 6.1375341 1.6760391
6.9002805 4.9110298 1.6463001
3.2841249 2.3364937 -0.21122794
5.818718 4.138207 1.6484413
3.2742782 2.3277698 -0.070123769
5.0437837 3.584429 1.6579949
14.364794 10.167085 1.5396932
9.2574873 6.5473971 1.3922355
8.6342573 6.1043544 1.6747875
6.9205871 4.8891807 1.6470633
3.3004162 2.3307786 -0.2117513
5.8363123 4.1201167 1.6493411
3.2999499 2.3295839 -0.07050772
5.057219 3.5688009 1.6585126
9.4267225 6.6325889 0.20119135
9.4338875 6.6327081 0.60437566
14.413241 10.12604 1.5410879
9.259655 6.5029688 1.3893106
8.6555147 6.0741758 1.6747875
6.9351559 4.8650746 1.6466817
3.3212101 2.3289943 -0.21258868
5.8531337 4.1029782 1.6502409
3.311336 2.3203464 -0.070577532
5.0538235 3.5400414 1.6533362
14.446744 10.078184 1.5410879
8.6831474 6.0484438 1.6760391
6.9440398 4.8352294 1.6447737
3.3358772 2.32195 -0.21300736
5.8706183 4.0847497 1.6511407
3.3243415 2.3121984 -0.07068225
5.0740814 3.5278914 1.6559243
14.506403 10.04471 1.5437024
9.2819757 6.4223528 1.3858984
8.7155828 6.025959 1.6782292
6.9576464 4.8087258 1.6440103
3.3439615 2.310292 -0.21300736
5.8848424 4.0642309 1.6511407
3.3472023 2.3108058 -0.070996389
5.0911345 3.5134509 1.6574773
14.556155 10.004173 1.5452714
9.2814264 6.3741822 1.382486
8.733305 5.9932647 1.6776035
6.9824829 4.7899642 1.6459185
3.3602424 2.3042526 -0.21353073
5.8941717 4.0403566 1.649791
3.3601966 2.3024993 -0.071101107
5.1161189 3.5043902 1.6616182
14.609187 9.9619751 1.5470144
9.2888594 6.3316803 1.3802923
8.7427454 5.9549565 1.6754133
6.9886303 4.756609 1.6432471
3.3785722 2.2986624 -0.21415874
5.9073286 4.017632 1.6493411
3.3748276 2.2952533 -0.071240723
5.1235256 3.4832556 1.6600655
14.648825 9.9142656 1.5475373
9.3004913 6.2898097 1.3785861
8.7677851 5.9250879 1.6760391
7.0133266 4.7376781 1.6451553
3.4114044 2.3036201 -0.21572883
5.9277768 4.0013494 1.6511407
3.3881898 2.2862248 -0.071345441
5.1298537 3.4601283 1.6579949
14.691606 9.8686361 1.5484089
9.3059101 6.2462411 1.3761488
8.7916956 5.8966441 1.6766648
7.024931 4.7098866 1.6440103
3.4194233 2.2917004 -0.21572883
5.9481854 3.9849708 1.6529404
3.4111044 2.2843976 -0.071659587
5.1354771 3.437906 1.6559243
14.745859 9.8305502 1.5505006
9.2995701 6.1950116 1.3720052
8.8243542 5.8762178 1.6791677
7.0462313 4.688601 1.6451553
3.4390438 2.2874925 -0.21646154
5.9685512 3.9684975 1.65474
3.431983 2.28193 -0.07193882
5.1548948 3.4262023 1.6585126
14.805007 9.7955122 1.5531154
9.291914 6.1455255 1.3678616
8.8332748 5.8377576 1.6769776
7.0682917 4.6695385 1.6466817
3.4499443 2.2782757 -0.21667089
5.9670405 3.9390221 1.6506908
5.1668239 3.4081862 1.6585126
14.849064 9.7540236 1.5543356
9.2867575 6.0956216 1.3639618
8.8459778 5.8041005 1.6757263
7.0911169 4.6491413 1.6482083
3.4846029 2.2837369 -0.21834564
5.9856434 3.9213743 1.6520406
5.1813288 3.3931513 1.6595478
14.888029 9.70539 1.5548583
9.3052597 6.0637064 1.363718
8.862874 5.7710285 1.6751004
7.1081419 4.6266699 1.6485898
3.505549 2.2808836 -0.21918301
6.0051479 3.9057546 1.6538402
5.1801829 3.3666241 1.6554067
14.93519 9.6657047 1.5564274
9.298027 6.0128679 1.3595744
8.8786478 5.7394595 1.6744747
7.117651 4.5975699 1.6470633
3.5067785 2.2642987 -0.21876432
6.0220208 3.8868811 1.65474
5.1994352 3.3546627 1.6579949
14.983924 9.6232052 1.557996
9.2895193 5.9637685 1.355431
8.9135923 5.7180285 1.6772904
7.1295524 4.5718241 1.6463001
3.5075417 2.2483468 -0.21834564
6.0348778 3.8668883 1.65474
5.209486 3.3354521 1.6574773
15.032538 9.5767822 1.5593904
9.2939301 5.9163265 1.3527498
8.9371452 5.6848283 1.6776035
7.1569958 4.5507331 1.6485898
3.54649 2.2541456 -0.22022973
6.0365214 3.8353283 1.6511407
5.2255177 3.3174944 1.6585126
15.089451 9.5391579 1.5618308
9.3078127 5.879611 1.3517749
8.9402323 5.6430507 1.6744747
7.1744957 4.526772 1.6489714
3.5661614 2.2492113 -0.22096242
6.0531688 3.8163137 1.6520406
5.2386999 3.3002644 1.6590302
15.112533 9.480072 1.5607851
9.3114576 5.8365436 1.3493375
8.9615507 5.6128554 1.6747875
7.1885891 4.5006609 1.6485898
3.5943079 2.2494633 -0.2222185
6.0730624 3.7992933 1.6538402
9.2877703 5.8081574 -0.19120856
5.2387223 3.2747884 1.6554067
9.3098621 5.7903724 1.3461689
8.9861212 5.5846691 1.6757263
7.1909151 4.4672503 1.6455369
3.6089244 2.2411184 -0.22263718
6.0879426 3.7791002 1.6542901
9.2926979 5.766211 -0.19089442
5.2189302 3.237133 1.6455716
9.3017426 5.7516074 0.19089442
9.3212996 5.7592034 0.57423013
