# .PCD v0.7 - Point Cloud Data file format
VERSION 0.7
FIELDS x y z
SIZE 4 4 4
TYPE F F F
COUNT 1 1 1
WIDTH 1380
HEIGHT 1
VIEWPOINT 0 0 0 1 0 0 0
POINTS 1380
DATA ascii
0.80247438 -0.55877334 -0.017068453
0.79995638 -0.55888796 0.017033549
0.82497662 -0.57679695 0.052754648
0.83255917 -0.58253121 0.08889886
0.83591372 -0.58509558 0.12528169
0.87692142 -0.61425513 0.16957499
0.78809708 -0.55224162 -0.084192447
0.77847844 -0.54570413 -0.049823835
0.80870426 -0.56731319 -0.017242977
0.81435311 -0.57318664 0.017382598
0.81479388 -0.57392234 0.052231289
0.84039485 -0.59217459 0.089944728
0.83873314 -0.59144193 0.12601291
0.8779999 -0.61959022 0.17020072
0.77983171 -0.55072248 -0.050033178
0.8099851 -0.5724408 -0.017312787
0.81724101 -0.57949591 0.017487312
0.81604326 -0.5790748 0.052440636
0.84482121 -0.59971768 0.090641975
0.8528465 -0.60586244 0.12845029
0.86456186 -0.61463922 0.16801062
0.78431988 -0.55759317 -0.084192447
0.77953196 -0.55459911 -0.050137851
0.78191805 -0.5567078 -0.016754311
0.81846756 -0.58466977 0.017557122
0.82386845 -0.58874506 0.053068664
0.83786082 -0.59918612 0.090119034
0.85718364 -0.61345696 0.12942526
0.8705498 -0.62325239 0.16957499
0.78236872 -0.56032759 -0.084192447
0.8035652 -0.5759328 -0.051812604
0.80444479 -0.57677579 -0.017277883
0.80840766 -0.5815419 0.017382598
0.82667106 -0.59511805 0.053382684
0.82606477 -0.59511948 0.089073166
0.85675508 -0.61745667 0.12966898
0.87157321 -0.62859839 0.17020072
0.78040802 -0.5630551 -0.084192447
0.77249998 -0.55755454 -0.049928509
0.8105318 -0.58543462 -0.017452406
0.86435926 -0.62454295 0.28573623
0.81284964 -0.58905393 0.017522216
0.83914024 -0.60855299 0.054324731
0.83698833 -0.60721529 0.090467662
0.85620099 -0.62160987 0.12991273
0.88695294 -0.644409 0.17364228
0.78024143 -0.56729478 -0.050556537
0.80363238 -0.5847308 -0.017347692
0.82468808 -0.60027122 0.2733129
0.81563383 -0.59542483 0.01762693
0.82410902 -0.60205287 0.053487353
0.84129804 -0.6148355 0.091164902
0.85883278 -0.62811035 0.13064395
0.87672794 -0.64166784 0.17207792
0.78953552 -0.57827598 -0.051289242
0.85042667 -0.62310231 0.24339703
0.81126362 -0.59462529 -0.017557122
0.83193535 -0.61000025 0.27641875
0.82482749 -0.60656118 0.017871264
0.81556797 -0.60019064 0.053068664
0.83914667 -0.61776853 0.091164902
0.85024214 -0.62639463 0.12966898
0.87289274 -0.64355195 0.17176506
0.7745688 -0.57106125 -0.084192447
0.80197662 -0.59170038 -0.052231289
0.82315975 -0.60755122 0.23619862
0.80757427 -0.59626579 -0.017522216
0.82513916 -0.60945725 0.27486584
0.82109827 -0.60824633 0.01783636
0.82630378 -0.61254919 0.053906042
0.83378446 -0.61832023 0.090816282
0.85761505 -0.63645673 0.13113143
0.87064093 -0.646595 0.17176506
0.77257061 -0.57376158 -0.084192447
0.79189128 -0.5885393 -0.051707931
0.82259786 -0.61158365 0.23664851
0.79906976 -0.59430754 -0.017382598
0.80130792 -0.59618944 0.26761889
0.81576478 -0.60871702 0.017766548
0.82896131 -0.6190148 0.054220054
0.8380059 -0.62599653 0.091513529
0.84743851 -0.63350374 0.12991273
0.87786907 -0.65673 0.17364228
0.77056313 -0.57645488 -0.084192447
0.79942513 -0.59848171 -0.052335959
0.82357758 -0.61678755 0.23754831
0.79699033 -0.59709322 -0.017382598
0.811589 -0.60825139 0.27176002
0.81203645 -0.61035931 0.017731644
0.82679552 -0.62190467 0.054220054
0.83899963 -0.63131362 0.09186215
0.85315078 -0.64242846 0.13113143
0.88503712 -0.66692322 0.1755195
0.77181661 -0.58202803 -0.05066121
0.82453108 -0.62200588 0.23844811
0.81565166 -0.61553085 -0.01783636
0.81408626 -0.61457258 0.2733129
0.81149524 -0.61439723 0.017766548
0.82143587 -0.62237459 0.054010712
0.84314221 -0.63905251 0.092559397
0.83666867 -0.63460594 0.12893778
0.88270366 -0.6700086 0.1755195
0.77296126 -0.58713478 -0.050870556
0.82545805 -0.62723815 0.23934792
0.81031424 -0.61595404 -0.017766548
0.82423818 -0.62676531 0.27745402
0.82047617 -0.62571454 0.018010885
0.82243371 -0.62766153 0.054220054
0.84248996 -0.64320076 0.092733704
0.85968691 -0.65680492 0.13283759
0.87722099 -0.67068601 0.17489375
0.7978729 -0.61046129 -0.052649979
0.82016855 -0.627747 0.23844811
0.79704499 -0.61026907 -0.017522216
0.8159107 -0.62493986 0.27538347
0.8198728 -0.62979281 0.018045789
0.82340479 -0.63296306 0.054429401
0.83392203 -0.64127946 0.092036456
0.85424262 -0.65738046 0.13235012
0.87174433 -0.67133349 0.17426802
0.80048311 -0.61690021 -0.052963994
0.8287757 -0.63893473 0.24159741
0.79490989 -0.61304754 -0.017522216
0.82137203 -0.63368416 0.27797166
0.80976158 -0.62653244 0.017871264
0.83382392 -0.64561546 0.055266771
0.84112942 -0.65150678 0.093082331
0.86292541 -0.66887122 0.13405629
0.87563914 -0.67921531 0.1755195
0.7999025 -0.62091535 -0.053068664
0.82807964 -0.64301908 0.24204734
0.79434431 -0.61704534 -0.017557122
0.81762964 -0.63536215 0.27745402
0.8107242 -0.63181365 0.017941073
0.82999033 -0.64729381 0.055162102
0.84670454 -0.66056663 0.093953893
0.84650296 -0.66088492 0.13186264
0.88882899 -0.69442934 0.17864819
0.78199583 -0.61140186 -0.052021943
0.82736498 -0.64710623 0.24249724
0.80321008 -0.62844002 -0.017801456
0.8245346 -0.6453566 0.28055987
0.81637883 -0.64081329 0.018115599
0.81987256 -0.64401835 0.054638743
0.84752667 -0.66598016 0.094302505
0.85355359 -0.67119813 0.13332509
0.88795197 -0.69874936 0.17896105
0.77044219 -0.60671371 -0.051393915
0.82050872 -0.64637262 0.24114752
0.79944092 -0.63000214 -0.017766548
0.82227689 -0.64823079 0.28055987
0.81256837 -0.6424188 0.018080693
0.81773239 -0.64673364 0.054638743
0.83894765 -0.66398865 0.093605265
0.85431772 -0.67663842 0.13381255
0.87169522 -0.69064945 0.17614523
0.90148878 -0.7147674 0.22362815
0.8027454 -0.6367045 -0.053696696
0.82588029 -0.65528905 0.24339703
0.80361325 -0.63762146 -0.017906168
0.82466209 -0.65455693 0.28211278
0.82138538 -0.65382767 0.018325027
0.82171869 -0.65456182 0.055057433
0.83506691 -0.66567117 0.093430951
0.85982943 -0.68565601 0.13503124
0.87391114 -0.69738436 0.17708384
0.80062956 -0.63936299 -0.053696696
0.82674789 -0.66045684 0.24429685
0.79357201 -0.63418072 -0.017731644
0.82388109 -0.65863788 0.28263038
0.80973697 -0.64918572 0.018115599
0.82889199 -0.66478056 0.055685461
0.82819343 -0.66469544 0.092908025
0.85897839 -0.68989617 0.13527498
0.88391298 -0.71017635 0.17958678
0.78282976 -0.62963623 -0.052649979
0.82899231 -0.66700351 0.24564654
0.79769659 -0.64182311 -0.017871264
0.82018763 -0.66015512 0.28211278
0.81069171 -0.65437937 0.018185407
0.82345909 -0.66515988 0.055476118
0.83671433 -0.67634982 0.094128199
0.84742451 -0.68525183 0.13381255
0.88296431 -0.71450019 0.17989966
0.89420724 -0.72385627 0.22362815
0.78694606 -0.63725638 -0.053068664
0.83586138 -0.67710876 0.24834597
0.80477303 -0.65215766 -0.018080693
0.82388103 -0.66788018 0.28418332
0.80983919 -0.65860796 0.018220313
0.82256466 -0.66943425 0.055580791
0.84516406 -0.68807167 0.095348388
0.84644628 -0.68960696 0.13405629
0.88493258 -0.72147626 0.18083826
0.8915481 -0.72712886 0.22362815
0.79234284 -0.64644939 -0.053592026
0.82129616 -0.67031026 0.24474674
0.80702436 -0.65889692 -0.018185407
0.83489364 -0.68189371 0.28884208
0.81836432 -0.67030066 0.018464647
0.82022285 -0.67230147 0.055580791
0.8364746 -0.6861105 0.09465114
0.8517068 -0.69885331 0.13527498
0.86866885 -0.71327871 0.17802243
0.84337145 -0.69299972 0.21217963
0.78533942 -0.64554435 -0.053278007
0.82033902 -0.67455369 0.24519664
0.79236287 -0.65154928 -0.017906168
0.82803237 -0.68112212 0.28728914
0.81898677 -0.67584115 0.018534455
0.8194114 -0.67643195 0.055685461
0.82946628 -0.68521935 0.094128199
0.85525972 -0.70702952 0.13624993
0.87074059 -0.72008336 0.17896105
0.8742221 -0.72347647 0.2205752
0.79077369 -0.65464985 -0.053801365
0.82398289 -0.68238491 0.24699625
0.79162389 -0.6555866 -0.017941073
0.82564974 -0.6840083 0.28728914
0.80751246 -0.67088604 0.018325027
0.82626009 -0.68694925 0.056313496
0.82860094 -0.68938482 0.094302505
0.8544361 -0.71113169 0.13649367
0.88188261 -0.73449618 0.18177687
0.85975158 -0.71631801 0.21752228
0.80394089 -0.67005593 -0.05484809
0.82770252 -0.69010532 0.24879587
0.79854459 -0.66603094 -0.018150503
0.82325709 -0.68688625 0.28728914
0.80363208 -0.6724174 0.018290123
0.82845104 -0.69367588 0.056627508
0.8308925 -0.6959669 0.094825447
0.84129936 -0.70518357 0.1347875
0.88082671 -0.73883945 0.18208973
0.85423797 -0.71679074 0.21675903
0.78782916 -0.66130143 -0.053906042
0.82678092 -0.69424349 0.24924576
0.79774606 -0.67010057 -0.018185407
0.82824951 -0.69596976 0.28987733
0.81045496 -0.68295002 0.018499551
0.82602459 -0.69656348 0.056627508
0.8389948 -0.70800209 0.096045621
0.84641695 -0.71451849 0.13600621
0.87975132 -0.74318427 0.1824026
0.84860653 -0.71738195 0.2159958
0.78997517 -0.66805351 -0.054220054
0.82125533 -0.69475198 0.24834597
0.79845542 -0.67546409 -0.018255217
0.83761239 -0.70884025 0.29401845
0.80794632 -0.68591595 0.018499551
0.81293178 -0.69039255 0.055894807
0.83955467 -0.71350694 0.096394248
0.84832907 -0.72147405 0.13673742
0.87113369 -0.74113071 0.18115114
0.84908688 -0.72288525 0.21675903
0.78763843 -0.67080694 -0.054220054
0.81734169 -0.69635063 0.24789605
0.79304844 -0.67565346 -0.018185407
0.83366269 -0.7105068 0.29350081
0.81630814 -0.69768602 0.018743884
0.8256951 -0.70620775 0.056941528
0.82949066 -0.70995563 0.095522694
0.8519634 -0.72944748 0.13771236
0.87754166 -0.75187856 0.18302836
0.84817576 -0.72697449 0.21714064
0.78844208 -0.67601538 -0.054429401
0.8239032 -0.70666945 0.25059548
0.79372042 -0.68102187 -0.018255217
0.82531387 -0.70837957 0.29143026
0.80932122 -0.6966176 0.018639171
0.82171172 -0.70778221 0.056836855
0.82411295 -0.71010125 0.095174067
0.85241878 -0.73500961 0.13819985
0.87192053 -0.75235617 0.1824026
0.8396883 -0.72479939 0.21561417
0.80270606 -0.69312179 -0.055580791
0.82733041 -0.71463656 0.25239509
0.7989037 -0.69032544 -0.018429741
0.82575905 -0.71378267 0.29246551
0.80235142 -0.6955089 0.018534455
0.82828838 -0.71849865 0.057464886
0.83216298 -0.72211426 0.096394248
0.84535134 -0.7340759 0.13746862
0.87823558 -0.76316935 0.18427983
0.84604329 -0.73545414 0.21790388
0.78973198 -0.68674552 -0.05484809
0.82777137 -0.72007811 0.25329489
0.79799771 -0.69442266 -0.018464647
0.8261767 -0.71919769 0.29350081
0.80745101 -0.70488089 0.01870898
0.80622137 -0.7043035 0.05610415
0.83563834 -0.73025888 0.097091496
0.8457725 -0.73963583 0.13795611
0.87853926 -0.76883215 0.18490556
0.84347087 -0.73840296 0.21790388
0.78432482 -0.68686628 -0.054638743
0.81938958 -0.7178266 0.25149527
0.79256099 -0.69456804 -0.018394835
0.82801926 -0.72589773 0.29505375
0.80949104 -0.71165615 0.018813694
0.81575441 -0.7176674 0.056941528
0.84056246 -0.73975283 0.097963057
0.84616488 -0.74520767 0.13844359
0.87733209 -0.77320015 0.18521842
0.84530616 -0.74523753 0.21904872
0.78491837 -0.69224209 -0.05484809
0.82272416 -0.72583944 0.25329489
0.7871331 -0.69468403 -0.018325027
0.82837677 -0.73134083 0.29608899
0.81149369 -0.71845412 0.01891841
0.819224 -0.7258085 0.057360213
0.82455558 -0.73078883 0.096394248
0.85246927 -0.75605977 0.13990602
0.86871821 -0.77101296 0.18396695
0.84269959 -0.74818367 0.21904872
0.79145706 -0.70293552 -0.055476118
0.82309908 -0.73129547 0.25419468
0.78619814 -0.69875574 -0.018359931
0.82148767 -0.73037702 0.29453608
0.8015179 -0.7146284 0.018743884
0.81668556 -0.72866362 0.057360213
0.82051319 -0.73233598 0.096219942
0.84686393 -0.75638622 0.13941854
0.8778041 -0.78457183 0.1864699
0.83422869 -0.7458865 0.21752228
0.79048717 -0.70702541 -0.055580791
0.81763685 -0.73156542 0.25329489
0.79418439 -0.71083134 -0.018604266
0.81749386 -0.73195148 0.29401845
0.79753065 -0.71608597 0.01870898
0.82602233 -0.74218893 0.058197591
0.82832438 -0.74451876 0.097440116
0.83683902 -0.75270009 0.13819985
0.87799668 -0.79027426 0.18709564
0.82870197 -0.74616665 0.21675903
0.77762628 -0.7004236 -0.05484809
0.82086915 -0.7396329 0.2550945
0.79169828 -0.71359926 -0.018604266
0.8249771 -0.74385637 0.29764193
0.80837548 -0.73093593 0.019023122
0.80713564 -0.73032719 0.057046197
0.83753771 -0.758102 0.098834611
0.84009153 -0.76094735 0.1391748
0.87815982 -0.79598749 0.18772139
0.83336431 -0.75564855 0.21866712
0.78257334 -0.70984304 -0.055371448
0.80962336 -0.73463672 0.25239509
0.79216385 -0.71904653 -0.018674076
0.83238715 -0.755822 0.30126539
0.80877626 -0.73644596 0.019092934
0.81947464 -0.74644929 0.058092915
0.83341384 -0.75967866 0.098660305
0.84036332 -0.7665506 0.13966228
0.86676031 -0.79090625 0.18584417
0.83362108 -0.76120055 0.21943036
0.78156537 -0.71391743 -0.055476118
0.81136978 -0.74140197 0.25374478
0.78091776 -0.71357596 -0.018464647
0.83130199 -0.75988156 0.301783
0.8033815 -0.73642141 0.019023122
0.80803317 -0.74120468 0.057464886
0.81901479 -0.75180471 0.09726581
0.84805191 -0.77873164 0.14136845
0.86544889 -0.79526353 0.18615703
0.8354283 -0.76794666 0.2205752
0.78801471 -0.72461659 -0.05610415
0.81607783 -0.75068504 0.25599429
0.78283668 -0.72035968 -0.01856936
0.82295918 -0.75754529 0.29971248
0.79639786 -0.73515218 0.01891841
0.81864488 -0.75621772 0.058406934
0.81798047 -0.75586861 0.097440116
0.84387106 -0.78033954 0.14112473
0.86556727 -0.80096304 0.18678276
0.8284204 -0.76685727 0.21943036
0.78401506 -0.72600591 -0.05599948
0.81631184 -0.75617766 0.25689411
0.78471768 -0.72716546 -0.018674076
0.81464273 -0.75516009 0.29764193
0.7996853 -0.74337357 0.019058026
0.81453782 -0.7577104 0.058302261
0.82103789 -0.76429182 0.098137364
0.8353309 -0.77786905 0.14014976
0.88588881 -0.82552671 0.19178867
0.82273257 -0.76721054 0.21866712
0.76966512 -0.7179755 -0.055162102
0.81923383 -0.76448268 0.25869372
0.78509855 -0.73262876 -0.018743884
0.82188696 -0.76722682 0.30126539
0.8042534 -0.75313377 0.019232551
0.80314231 -0.75235641 0.057674225
0.82999367 -0.778054 0.099531859
0.83247429 -0.78092551 0.14014976
0.90893006 -0.85294533 0.19742033
0.82577407 -0.77545351 0.22019359
0.77879983 -0.73159754 -0.05599948
0.81087989 -0.76199961 0.25689411
0.78690821 -0.73947293 -0.0188486
0.83327943 -0.78332287 0.30644175
0.80175155 -0.75579661 0.019232551
0.80051118 -0.75515527 0.057674225
0.82437503 -0.77821112 0.099183232
0.83565319 -0.78913361 0.14112473
0.86861813 -0.82083708 0.18928573
0.83175808 -0.78627962 0.22248329
0.77201599 -0.73005921 -0.055685461
0.80834854 -0.7646845 0.25689411
0.77705991 -0.73534292 -0.018674076
0.81931663 -0.77560228 0.30230066
0.79910845 -0.7585907 0.019232551
0.81683022 -0.77568501 0.059034962
0.81890142 -0.77819568 0.098834611
0.8415246 -0.80025339 0.14258714
0.8290084 -0.78917819 0.22248329
0.78392655 -0.74652308 -0.056732185
0.81414026 -0.77556628 0.25959352
0.77751285 -0.74067432 -0.018743884
0.81394303 -0.77564937 0.30126539
0.79225141 -0.75709188 0.019127838
0.80690032 -0.77162963 0.058511604
0.81617999 -0.78104943 0.098834611
0.83743221 -0.80166698 0.14234342
0.81788206 -0.78377283 0.22019359
0.7800048 -0.74773645 -0.056627508
0.81015748 -0.77691299 0.25914362
0.7778089 -0.74615246 -0.018813694
0.81123054 -0.77848589 0.30126539
0.78947121 -0.75999051 0.019127838
0.81269705 -0.78289592 0.059139632
0.82205653 -0.79218882 0.099880479
0.82877266 -0.79921901 0.14136845
0.81500393 -0.78676522 0.22019359
0.77869576 -0.7519778 -0.056732185
0.81010753 -0.78258508 0.26004341
0.78082085 -0.75455678 -0.018953314
0.81809455 -0.7908529 0.30488884
0.78824925 -0.76413351 0.019162742
0.80135804 -0.77738386 0.058511604
0.81785643 -0.79366589 0.099706165
0.83167422 -0.80763894 0.14234342
0.82492203 -0.80192149 0.22362815
0.77749795 -0.75608379 -0.056836855
0.80318046 -0.7813316 0.25869372
0.77961522 -0.7586723 -0.018988218
0.82086599 -0.79909402 0.30695942
0.79702461 -0.77805531 0.019441981
0.80292565 -0.78436345 0.058825623
0.81935596 -0.80069357 0.10022911
0.8345269 -0.81608868 0.14331836
0.82211775 -0.80479616 0.22362815
0.776281 -0.76019043 -0.056941528
0.79905605 -0.7827667 0.2582438
0.77553409 -0.7599895 -0.018953314
0.8180716 -0.80195451 0.30695942
0.79145169 -0.77802891 0.019372171
0.80018282 -0.78716147 0.058825623
0.81229573 -0.79935622 0.099706165
0.84581739 -0.8329252 0.14575575
0.82209975 -0.81041747 0.22439139
0.77788907 -0.76710272 -0.057255544
0.79909343 -0.7882883 0.25914362
0.77287644 -0.76269203 -0.018953314
0.81389242 -0.80344784 0.30644175
0.77878314 -0.77093917 0.019127838
0.80452478 -0.79697782 0.059348982
0.80808532 -0.80078441 0.099531859
0.83444744 -0.82748586 0.14429331
0.80811948 -0.80221719 0.22133845
0.77520663 -0.76981342 -0.057255544
0.81016225 -0.80480677 0.26364264
0.77304631 -0.76820427 -0.019023122
0.80971283 -0.8049221 0.30592412
0.78316832 -0.78071183 0.019302363
0.80880791 -0.80683398 0.05987234
0.81092638 -0.80922973 0.10022911
0.83014917 -0.82899088 0.14404957
0.80947959 -0.80919707 0.22248329
0.75980425 -0.75980425 -0.056313496
0.79219306 -0.79246956 0.25869372
0.78166801 -0.78221399 -0.019302363
0.81782073 -0.8186776 0.31006524
0.78749472 -0.7905243 0.019476885
0.79908133 -0.80243552 0.059348982
0.81793433 -0.82194132 0.10144928
0.82445109 -0.82906854 0.14356211
0.80803376 -0.81341064 0.22286493
0.76418406 -0.76953775 -0.056836855
0.79779959 -0.80338883 0.26139313
0.77625221 -0.78196329 -0.019232551
0.82326597 -0.82961261 0.31317106
0.78908879 -0.79739565 0.019581601
0.79220212 -0.80082124 0.059034962
0.81240296 -0.82181537 0.10110066
0.83285773 -0.84309566 0.145512
0.81774294 -0.8286624 0.22629949
0.77144641 -0.78202063 -0.057569556
0.78691983 -0.79770613 0.25869372
0.7666344 -0.77741396 -0.019058026
0.8123731 -0.82408357 0.31006524
0.7920475 -0.80571198 0.019721219
0.79640013 -0.8107056 0.059558321
0.80967313 -0.82450491 0.10110066
0.83144784 -0.84726971 0.14575575
0.80949301 -0.82576174 0.22477302
0.77304262 -0.78885406 -0.057883576
0.79640383 -0.81297696 0.26274285
0.76671433 -0.78294283 -0.019127838
0.81489712 -0.8324362 0.31213579
0.77805537 -0.79702455 0.019441981
0.80193341 -0.82205868 0.060186356
0.79969198 -0.8203336 0.10022911
0.8243289 -0.84590179 0.14502454
0.79824573 -0.82028097 0.22248329
0.76457548 -0.78595561 -0.057464886
0.80021173 -0.8228758 0.26499236
0.7737354 -0.79564959 -0.019372171
0.7985208 -0.82142365 0.30695942
0.77791208 -0.80274296 0.019511791
0.8030833 -0.82929659 0.060500368
0.80790967 -0.83457214 0.10162359
0.82536352 -0.85319781 0.14575575
0.79537749 -0.82306236 0.22248329
0.75905204 -0.78574675 -0.057255544
0.79598075 -0.82426214 0.26454243
0.7777583 -0.8056736 -0.019546695
0.80087054 -0.82990533 0.30902994
0.77926499 -0.80977619 0.019616505
0.79187721 -0.82345724 0.05987234
0.80775315 -0.84025985 0.10197222
0.82100511 -0.85464191 0.145512
0.80065578 -0.834333 0.22477302
0.75630462 -0.78839165 -0.057255544
0.78770345 -0.82140958 0.26274285
0.76940596 -0.8026095 -0.019407077
0.8073253 -0.84245932 0.31265342
0.78195989 -0.81827426 0.019756125
0.79037732 -0.8276608 0.05997701
0.80894244 -0.84739774 0.10249515
0.82349765 -0.86324799 0.14648695
0.79502976 -0.83428007 0.22400977
0.76043594 -0.79825741 -0.057778902
0.78751916 -0.82697654 0.26364264
0.76522088 -0.80384195 -0.019372171
0.80038434 -0.84107393 0.31110048
0.77772212 -0.81954813 0.019721219
0.78748339 -0.83041471 0.05997701
0.79090172 -0.83431089 0.10057773
0.82730532 -0.87332296 0.14770564
0.796161 -0.84132814 0.22515462
0.77137035 -0.8154161 -0.058825623
0.78328878 -0.82830465 0.26319274
0.76103657 -0.80505502 -0.019337267
0.79744351 -0.84386271 0.31110048
0.77622819 -0.82371336 0.019756125
0.79568136 -0.84465188 0.060814388
0.79754424 -0.84722173 0.10179791
0.81201041 -0.8631925 0.145512
0.791875 -0.84267151 0.22477302
0.76168203 -0.81082523 -0.058302261
0.79640067 -0.84808058 0.26859155
0.76110053 -0.81048971 -0.019407077
0.79464078 -0.84650248 0.31110048
0.76939267 -0.82190329 0.019651409
0.79272819 -0.84742421 0.060814388
0.79866374 -0.85436696 0.10232083
0.80643284 -0.86297971 0.14502454
0.78237778 -0.83811718 0.22286493
0.7494505 -0.80312496 -0.057569556
0.7909255 -0.84786689 0.26769176
0.75963056 -0.81460404 -0.019441981
0.7943157 -0.85209745 0.31213579
0.77604944 -0.83483642 0.019895744
0.78432798 -0.84433293 0.060395699
0.80260491 -0.86431062 0.1031924
0.80476588 -0.86724448 0.14526826
0.7794475 -0.84084308 0.22286493
0.75343013 -0.81306106 -0.058092915
0.78266376 -0.84490418 0.26589215
0.75949973 -0.82018512 -0.019511791
0.79527342 -0.85911787 0.3136887
0.77855599 -0.84341753 0.020035362
0.78408438 -0.85000169 0.060605045
0.80348289 -0.87164128 0.10371533
0.81115007 -0.8802672 0.14697444
0.7896542 -0.85814101 0.2266811
0.75720578 -0.82316673 -0.058616273
0.77560461 -0.8434636 0.26454243
0.75121796 -0.81694329 -0.019372171
0.80011404 -0.87042236 0.31679454
0.77545941 -0.84626544 0.020035362
0.78920692 -0.86157006 0.061233077
0.79370904 -0.86709243 0.10284378
0.80657852 -0.88176954 0.14673071
0.78930253 -0.86379087 0.22744434
0.75971586 -0.83170348 -0.059034962
0.78185397 -0.85623926 0.26769176
0.7524069 -0.82399064 -0.019476885
0.77753466 -0.85180765 0.30902994
0.76457244 -0.83995962 0.019825934
0.78619474 -0.86431968 0.061233077
0.79201752 -0.87133205 0.10301808
0.81966954 -0.90206933 0.14965557
0.8392145 -0.92455149 0.24270906
0.75024313 -0.82682264 -0.058511604
0.78162879 -0.86171407 0.26859155
0.75758541 -0.83550036 -0.019686313
0.77325922 -0.85308522 0.3085123
0.75895399 -0.83965635 0.019756125
0.78585029 -0.87002301 0.061442416
0.7917943 -0.87691128 0.10336671
0.80188763 -0.88871306 0.14697444
0.7446785 -0.82646894 -0.058302261
0.78122455 -0.86733317 0.26949137
0.75600237 -0.83962578 -0.019721219
0.76937556 -0.85718209 0.020105172
0.77747428 -0.8668136 0.061023727
0.79389417 -0.88574195 0.10406395
0.80010521 -0.89298528 0.14721818
0.74563879 -0.83365875 -0.058616273
0.7637524 -0.85421056 0.26454243
0.75306696 -0.84225959 -0.019721219
0.7635681 -0.85701007 0.020035362
0.77562022 -0.87114906 0.061128404
0.79477137 -0.89297271 0.10458689
0.80342317 -0.90332824 0.14843687
0.75068206 -0.84521633 -0.059244309
0.7555908 -0.85104239 0.26274285
0.74732023 -0.84202296 -0.019651409
0.76719731 -0.86715877 0.020209888
0.78051203 -0.88282913 0.061756436
0.78489745 -0.88841397 0.10371533
0.81340563 -0.92100608 0.15087426
0.74097508 -0.84047121 -0.05872095
0.74173212 -0.84162605 -0.019581601
0.75258625 -0.85604817 0.019895744
0.78168929 -0.88977826 0.062070452
0.78751683 -0.89672714 0.10441258
0.80003315 -0.91162074 0.14892435
0.73569876 -0.83979028 -0.058511604
0.74435413 -0.84996939 -0.019721219
0.75207329 -0.86181402 0.019965554
0.77842283 -0.89263731 0.062070452
0.78815252 -0.90411299 0.10493552
0.79538262 -0.91305012 0.14868061
0.7378583 -0.84850961 -0.058930293
0.75041729 -0.86325634 -0.019965554
0.75414658 -0.87061059 0.020105172
0.76876503 -0.88779968 0.061547089
0.78744084 -0.91000891 0.10528414
0.78683716 -0.90995294 0.14770564
0.74141848 -0.85863847 -0.059453651
0.74086612 -0.8583017 -0.019791029
0.76168954 -0.88523322 0.020384412
0.76826566 -0.89350659 0.061756436
0.78685641 -0.91577446 0.10563275
0.78640223 -0.91556901 0.14819314
0.73726672 -0.85957634 -0.059348982
0.73916698 -0.86240089 -0.019825934
0.75339901 -0.88180512 0.020244792
0.76384526 -0.89466393 0.061651766
0.779935 -0.91383231 0.10510983
0.79608309 -0.93341213 0.15063052
0.73685169 -0.86518574 -0.059558321
0.73226392 -0.86040717 -0.019721219
0.74902272 -0.88290483 0.020209888
0.76846677 -0.90646565 0.062279794
0.7740047 -0.91364431 0.1047612
0.78512275 -0.92709619 0.14916809
0.73109692 -0.86483008 -0.059348982
0.74216336 -0.87823176 -0.020070268
0.74578172 -0.88564414 0.020209888
0.76529807 -0.90914255 0.062279794
0.77722347 -0.92396402 0.10563275
0.78044206 -0.92844796 0.14892435
0.72807366 -0.8673768 -0.059348982
0.7390933 -0.88081706 -0.020070268
0.7518214 -0.89884949 0.02045422
0.75955808 -0.90874362 0.062070452
0.78037965 -0.93431717 0.10650431
0.72391427 -0.86825246 -0.059244309
0.7398541 -0.88800055 -0.020174982
0.75123453 -0.90454495 0.020524029
0.75909197 -0.91433066 0.062279794
0.77727705 -0.9368999 0.10650431
0.72597373 -0.87692797 -0.059662998
0.73563045 -0.88890857 -0.020140078
0.74823076 -0.90703118 0.020524029
0.75589573 -0.91697484 0.062279794
0.7626009 -0.92576712 0.10493552
0.72559875 -0.88241589 -0.05987234
0.71982777 -0.87602079 -0.019791029
0.72985476 -0.89107347 0.020105172
0.76281047 -0.93197238 0.063117169
0.76457345 -0.93445891 0.10563275
0.71998781 -0.88184923 -0.059662998
0.72940689 -0.89402252 -0.020140078
0.73935694 -0.90912992 0.02045422
0.75955272 -0.93462932 0.063117169
0.72429562 -0.89379245 -0.06029103
0.73131663 -0.90277851 -0.020279696
0.73601985 -0.91183364 0.02045422
0.75377715 -0.93416619 0.062907822
0.7161631 -0.89009088 -0.05987234
0.72690749 -0.90376753 -0.020244792
0.74174792 -0.92519075 0.020698555
0.74942619 -0.93510222 0.062803157
0.71320754 -0.89246082 -0.05987234
0.71641785 -0.89679879 -0.020035362
0.73493892 -0.92295235 0.020593841
0.71396917 -0.8995142 -0.060186356
0.71452576 -0.90086091 -0.020070268
0.72675186 -0.91923749 0.02045422
0.70943147 -0.90055591 -0.060081679
0.72003698 -0.91434681 -0.0203146
0.72461224 -0.92346811 0.020489125
0.71243608 -0.91089302 -0.060605045
0.71930438 -0.92000544 -0.020384412
0.70083475 -0.90220946 -0.05987234
0.7136361 -0.91935134 -0.0203146
0.70743901 -0.91730285 -0.060709719
0.71408468 -0.92658854 -0.020419316
0.71256959 -0.93099159 -0.061442416
0.70355529 -0.9195466 -0.020209888
0.70569038 -0.92870265 -0.061128404
0.68921334 -0.91362125 -0.05997701
0.68362558 -0.91282421 -0.059767671
0.82210922 -1.4279609 0.14415559
0.80427492 -1.4083301 0.14188954
0.79515225 -1.4157865 0.14206386
0.78849596 -1.4149036 0.084888928
0.79796207 -1.4324777 0.14345835
0.80644578 -1.4596695 0.1458987
0.76852733 -1.4008404 0.083737537
0.80447406 -1.4675771 0.14642164
0.87937301 -1.6062075 0.29002953
0.86305505 -1.5777094 0.34956211
0.77031469 -1.4157952 0.084470242
0.80436248 -1.4789882 0.1472932
0.87941623 -1.6196833 0.29190674
0.81286716 -1.4977382 0.33124444
0.75444484 -1.3970644 0.027714422
0.78054255 -1.446599 0.086144991
0.80366379 -1.4906951 0.14816476
0.87297338 -1.6199328 0.22594579
0.86813831 -1.6123074 0.29002953
0.80551195 -1.4972498 0.3304812
0.78302634 -1.4634029 0.086982369
0.80690968 -1.5093049 0.14973356
0.86515975 -1.6196196 0.22545831
0.86622667 -1.6222981 0.29128101
0.80120492 -1.5017846 0.33086282
0.74654895 -1.4058297 0.027784232
0.77604109 -1.4625987 0.086773023
0.81283492 -1.5332361 0.15182531
0.88023293 -1.6610683 0.23082055
0.80694681 -1.5240573 0.27313459
0.75002259 -1.4243515 0.028098376
0.77465069 -1.472369 0.087191716
0.81145567 -1.5429766 0.15252255
0.86334896 -1.6430438 0.22789569
0.7906031 -1.505877 0.26938018
0.71572423 -1.3655691 -0.026911611
0.75615233 -1.4482323 0.028517231
0.78243947 -1.4998549 0.088657118
0.80763668 -1.5494741 0.15287116
0.8062436 -1.5474607 0.21424633
0.77439624 -1.4876014 0.26562575
0.71003097 -1.3662848 -0.026876707
0.74900115 -1.4474421 0.028447423
0.78427517 -1.5169058 0.089494489
0.80588204 -1.5593637 0.15356842
0.80967426 -1.5680435 0.21668372
0.78433555 -1.5202733 0.27094454
0.71561807 -1.3882676 -0.081853449
0.71875256 -1.3955444 -0.027400278
0.75124651 -1.4642812 0.02872666
0.78535295 -1.5320756 0.090227202
0.80833542 -1.5782671 0.15513723
0.7933405 -1.5496562 0.21375884
0.77902418 -1.5230019 0.27094454
0.7096163 -1.3891025 -0.081748769
0.72842735 -1.42654 -0.027958756
0.7563628 -1.4863688 0.029110614
0.78298354 -1.5400127 0.090541214
0.81330252 -1.6003366 0.15705465
0.79898214 -1.5735183 0.21668372
0.78290665 -1.5431933 0.27407321
0.70253992 -1.3859805 -0.081434757
0.73092061 -1.4432193 -0.028237993
0.75837529 -1.503283 0.029389855
0.78299701 -1.5534375 0.091169246
0.81101596 -1.6104248 0.15775189
0.79259211 -1.5745246 0.21643998
0.77751511 -1.5459168 0.27407321
0.70014471 -1.3939005 -0.081748769
0.72946733 -1.4529103 -0.028377613
0.76090747 -1.5221503 0.029703995
0.7847116 -1.5704542 0.092006624
0.80538976 -1.6132458 0.15775189
0.79124629 -1.5863008 0.21765867
0.77916533 -1.562764 0.27657616
0.71396983 -1.4338816 -0.083946884
0.73151934 -1.4697696 -0.028656852
0.75496757 -1.5228735 0.029669091
0.78659374 -1.5873646 0.092843994
0.80357158 -1.62305 0.15844914
0.79126245 -1.5995919 0.2191211
0.78098315 -1.5795052 0.27907911
0.71628547 -1.4505678 -0.084784262
0.73460698 -1.4883257 -0.028970996
0.75344235 -1.532547 0.029808709
0.78633136 -1.6008567 0.093472026
0.80345345 -1.6364365 0.159495
0.78245658 -1.5950781 0.21814615
0.7876358 -1.6070547 0.28345928
0.71059287 -1.4511414 -0.084679581
0.73555899 -1.5034546 -0.029215328
0.75509608 -1.5495487 0.03008795
0.77898991 -1.6000003 0.09326268
0.80558306 -1.6553546 0.16106381
0.78122401 -1.6067258 0.21936484
0.78633732 -1.6186783 0.28502363
0.71598822 -1.4751747 -0.085935652
0.73466915 -1.5150096 -0.029389855
0.76185822 -1.5773844 0.030576617
0.77600425 -1.6081059 0.093576699
0.8023966 -1.6635401 0.16158675
0.77733451 -1.6130196 0.21985231
0.78325295 -1.6267529 0.28596222
0.71949279 -1.4956632 -0.086982369
0.72937626 -1.5175649 -0.029389855
0.75893766 -1.5854453 0.030681333
0.77555674 -1.6216155 0.094204731
0.79543501 -1.6646723 0.16141243
0.78025466 -1.6336359 0.22228971
0.78012204 -1.6348253 0.28690085
0.71744287 -1.5055022 -0.087401055
0.73009408 -1.532739 -0.029634187
0.7505514 -1.5827957 0.030576617
0.7784456 -1.6423609 0.095251448
0.79558855 -1.6800433 0.16263261
0.77511078 -1.6382791 0.22253343
0.77947789 -1.6482531 0.28877807
0.72071224 -1.5260574 -0.088447772
0.72986126 -1.546128 -0.029843615
0.74785089 -1.5907049 0.030681333
0.77440643 -1.6486838 0.095460795
0.79395109 -1.6918286 0.16350417
0.7688309 -1.6390432 0.22228971
0.78126383 -1.6670622 0.29159388
0.7329331 -1.5667795 -0.030192664
0.74820501 -1.6059942 0.030925665
0.76780385 -1.6495663 0.095356122
0.79337931 -1.7052909 0.16455004
0.76812524 -1.6525178 0.22375213
0.77460808 -1.6679875 0.29128101
0.38163304 -0.82253391 -0.047521055
0.7325055 -1.5802139 -0.030402092
0.75013769 -1.6249362 0.031239808
0.76371402 -1.6558635 0.095565468
0.79159254 -1.7170968 0.16542161
0.76484352 -1.660598 0.22448336
0.76878071 -1.6706814 0.29128101
0.72531563 -1.5791268 -0.030332282
0.74862015 -1.6366371 0.03141433
0.76457071 -1.6730517 0.096402846
0.78145498 -1.7107881 0.16455004
0.76316303 -1.6722875 0.22570205
0.76704192 -1.6823416 0.29284537
0.36760205 -0.80700243 -0.046474334
0.72311234 -1.5889292 -0.0304719
0.74207723 -1.6374191 0.031379428
0.76696408 -1.693905 0.097449563
0.77846408 -1.720902 0.16524729
0.75977445 -1.6803675 0.22643325
0.76848376 -1.7012107 0.29566118
0.72599864 -1.6094062 -0.092529982
0.72413713 -1.6060274 -0.030751141
0.73934585 -1.6474255 0.031519048
0.76075041 -1.6967047 0.097449563
0.77652609 -1.7326998 0.16611885
0.75523311 -1.6867645 0.22692074
0.76627618 -1.7130319 0.29722553
0.72802919 -1.6305822 -0.031169999
0.7417146 -1.6682686 0.031868093
0.75482309 -1.6993499 0.097449563
0.78179187 -1.7608936 0.16855921
0.74773055 -1.6857613 0.22643325
0.76269299 -1.7211143 0.29816413
0.3783946 -0.8547011 -0.048986461
0.72071499 -1.629456 -0.031100187
0.73749894 -1.6745075 0.031937905
0.74757421 -1.6981877 0.097240217
0.77002561 -1.7508451 0.16733903
0.74823004 -1.7029002 0.22838317
0.75459838 -1.7182081 0.29722553
0.34813541 -0.79382747 -0.045427613
0.71851873 -1.6391629 -0.031239808
0.73514169 -1.6842749 0.032077521
0.7512219 -1.722756 0.098496281
0.764705 -1.7553489 0.16751333
0.74812639 -1.7181123 0.23008935
0.752536 -1.7298887 0.29878986
0.33276367 -0.7656697 -0.043752864
0.71279275 -1.6416609 -0.031239808
0.72687757 -1.6813244 0.031972811
0.74837148 -1.732702 0.098914966
0.75966948 -1.7597045 0.16768765
0.74448311 -1.7261816 0.23082055
0.74961984 -1.7397615 0.30004135
0.72493237 -1.6840831 -0.096088827
0.71653807 -1.6661836 -0.031658668
0.72730094 -1.6985574 0.032252047
0.7431041 -1.7371401 0.099019639
0.75900549 -1.7751691 0.16890782
0.73455411 -1.7196422 0.22960186
0.74819428 -1.7532686 0.30191854
0.71541911 -1.6797131 -0.031868093
0.72527105 -1.7102907 0.03242657
0.73937309 -1.7452406 0.099333659
0.75668901 -1.7869811 0.16977938
0.73164052 -1.7295088 0.23057681
0.7443766 -1.7613285 0.30285716
0.32472754 -0.76911229 -0.043752864
0.71110594 -1.6858851 -0.031937905
0.72161919 -1.7183434 0.032531288
0.73636752 -1.7551777 0.099752344
0.75506926 -1.8006358 0.17082524
0.7309683 -1.7448686 0.232283
0.73212278 -1.7493382 0.30035421
0.33436784 -0.79972398 -0.045427613
0.70521647 -1.6883571 -0.031937905
0.71945596 -1.7300838 0.03270581
0.7340675 -1.7669595 0.1002757
0.74572319 -1.7959003 0.17012802
0.72867596 -1.7565775 0.23350169
0.3193503 -0.77136058 -0.043752864
0.70237607 -1.6982 -0.032077521
0.71265125 -1.7307354 0.032670904
0.73321378 -1.7824408 0.10100841
0.74020714 -1.8003352 0.17030232
0.71801478 -1.7480929 0.23203924
0.33180678 -0.8094309 -0.045846302
0.69947541 -1.7080436 -0.032217141
0.70690799 -1.7330892 0.032670904
0.72654521 -1.7830129 0.10090373
0.3140924 -0.77351642 -0.043752864
0.69831747 -1.7214719 -0.03242657
0.70609516 -1.7485259 0.032915238
0.72181147 -1.7892424 0.10111307
0.3203299 -0.79684561 -0.045008924
0.69230413 -1.7238989 -0.03242657
0.70666826 -1.7676911 0.033229381
0.71704292 -1.7954608 0.10132242
0.31754652 -0.79795891 -0.045008924
0.68628234 -1.726305 -0.03242657
0.69975787 -1.7682877 0.033194479
0.71591103 -1.8109545 0.10205512
0.68171692 -1.7324117 -0.032496382
0.69327205 -1.7708405 0.033194479
0.71540749 -1.8283221 0.1028925
0.67711669 -1.7385076 -0.03256619
0.68739587 -1.7731298 0.033194479
0.67535967 -1.7520559 -0.032775622
0.68836504 -1.7941886 0.033543523
0.29782426 -0.77992463 -0.043752864
0.67209053 -1.7618761 -0.032915238
0.68493724 -1.8040584 0.033683144
0.30215991 -0.79964274 -0.044799585
0.6645239 -1.7604698 -0.03284543
0.68004245 -1.8101821 0.033752955
0.29237211 -0.78198481 -0.043752864
0.66117346 -1.7702718 -0.03298505
0.67093247 -1.8050475 0.033613335
0.30349916 -0.82046473 -0.045846302
0.6591484 -1.7838234 -0.033194479
0.28690577 -0.78400689 -0.043752864
0.65429097 -1.7898697 -0.033264287
0.28416732 -0.7850036 -0.043752864
0.65075934 -1.7996646 -0.033403907
0.30566311 -0.85368365 -0.047521055
0.64177942 -1.7943939 -0.033264287
0.27868012 -0.78696829 -0.043752864
0.63884628 -1.8060491 -0.033438813
0.27317929 -0.78889465 -0.043752864
0.2678031 -0.7907359 -0.043752864
0.79122442 -2.3551548 0.21736643
0.29674488 -0.88636273 -0.048986461
0.79304528 -2.3881557 0.22015539
0.77221769 -2.3267937 0.30101728
0.2624146 -0.79254043 -0.043752864
0.7640909 -2.3294752 0.30101728
0.27579686 -0.84280503 -0.046474334
0.74639505 -2.2985327 0.12665303
0.7559548 -2.332128 0.30101728
0.25687525 -0.79435307 -0.043752864
0.73206609 -2.2855999 0.29468012
0.27598521 -0.8637349 -0.047521055
0.72067308 -2.2732255 0.12497827
0.71090758 -2.2465043 0.28931785
0.69840735 -2.229984 0.12246615
0.70424598 -2.2527616 0.28980532
0.24854289 -0.79699945 -0.043752864
0.73484099 -2.372422 0.043351781
0.67763293 -2.1904316 0.12016336
0.69052118 -2.236239 0.28736794
0.25281468 -0.82076728 -0.045008924
0.68213201 -2.236737 0.28712422
0.24297272 -0.79871517 -0.043752864
0.74136508 -2.4570689 0.13450342
0.24937689 -0.83016354 -0.045427613
0.66994357 -2.2458494 0.040908441
0.66348159 -2.2284453 0.2034215
0.23739091 -0.80039191 -0.043752864
0.64176267 -2.1791174 0.039651867
0.65850836 -2.2403054 0.20429306
0.2435752 -0.83188426 -0.045427613
0.63415188 -2.1813445 0.039651867
0.66733956 -2.2999945 0.2095224
0.23179735 -0.80202973 -0.043752864
0.70483351 -2.4612882 0.22399026
0.22913642 -0.80279404 -0.043752864
0.65635961 -2.3164394 0.042025398
0.22619247 -0.80362844 -0.043752864
0.69575542 -2.490238 0.045131925
0.23392719 -0.8429426 -0.045846302
0.60974503 -2.1986697 -0.039826389
0.22043614 -0.80522645 -0.043752864
0.60945404 -2.2277884 -0.040315062
0.22818403 -0.84451532 -0.045846302
0.59372282 -2.1989083 -0.039756581
0.22846965 -0.85684639 -0.046474334
0.22852439 -0.86922836 -0.047102366
0.64792234 -2.4679785 -0.044538539
0.22733995 -0.87779403 -0.047521055
0.21622258 -0.84765679 -0.045846302
0.21868131 -0.90877658 -0.048986461
0.19985117 -0.8434571 -0.045427613
0.18396598 -0.81433296 -0.043752864
0.18112229 -0.8149702 -0.043752864
0.17827639 -0.81559747 -0.043752864
0.17542841 -0.8162148 -0.043752864
0.17272075 -0.81679201 -0.043752864
0.16986863 -0.81738997 -0.043752864
0.16129972 -0.81912398 -0.043752864
0.15256986 -0.82079482 -0.043752864
0.16275275 -0.89202988 -0.047521055
0.14697203 -0.87451893 -0.046474334
0.1326144 -0.82425427 -0.043752864
0.12973648 -0.82471216 -0.043752864
0.12700091 -0.82513785 -0.043752864
0.12411983 -0.82557613 -0.043752864
0.12877832 -0.87738264 -0.046474334
0.12854642 -0.89759767 -0.047521055
0.1154678 -0.82683063 -0.043752864
0.11581288 -0.85097682 -0.045008924
0.10969262 -0.82761657 -0.043752864
0.1119132 -0.86761147 -0.045846302
0.11037564 -0.87988716 -0.046474334
0.10102002 -0.82871991 -0.043752864
0.098126605 -0.82906747 -0.043752864
0.10115562 -0.88099474 -0.046474334
0.089439437 -0.83004957 -0.043752864
0.057800476 -0.83285099 -0.043752864
0.083731875 -1.2409891 0.021710794
0.058044657 -0.88087821 -0.046264991
0.163352 -2.4922721 -0.043596111
0.078250594 -1.2233133 0.02139665
0.054969441 -0.88107544 -0.046264991
0.072169647 -1.1936382 0.020873079
0.052832909 -0.89721239 -0.047102366
0.06743402 -1.1839006 0.020698555
0.049037926 -0.88542616 -0.046474334
0.068897009 -1.2519147 -0.021885319
0.063407883 -1.1861255 0.020733459
0.064399868 -1.2126247 0.063640527
0.049672429 -0.95739669 -0.050242521
0.063394658 -1.2301801 -0.021501366
0.05916734 -1.1843425 0.020698555
0.060364645 -1.2168317 0.063849874
0.045171905 -0.93362516 -0.048986461
0.058332577 -1.2144148 -0.021222128
0.054754402 -1.1785492 0.020593841
0.055380758 -1.2010739 0.063012503
0.046390489 -1.0335397 -0.054220054
0.053737212 -1.2066201 -0.021082507
0.049781825 -1.1587546 0.020244792
0.051017791 -1.197269 0.062803157
0.040635187 -0.98181093 -0.051498584
0.049196981 -1.1988082 -0.020942887
0.04589453 -1.1629175 0.0203146
0.046604149 -1.1914525 0.062489137
0.034485124 -0.91009706 -0.047730397
0.044787105 -1.1929778 -0.020838173
0.041691117 -1.1590738 0.020244792
0.041662823 -1.1696521 0.061337747
0.031033533 -0.90222752 -0.047311708
0.040486444 -1.1891298 -0.020768363
0.037839621 -1.1652081 0.020349504
0.037579693 -1.1697903 0.061337747
0.028871113 -0.93427134 -0.048986461
0.035785716 -1.171275 -0.02045422
0.033540454 -1.1573379 0.020209888
0.033438936 -1.167918 0.061233077
0.027907882 -1.0182198 -0.053382684
0.031426501 -1.1613981 -0.020279696
0.029398311 -1.1534498 0.020140078
0.029717511 -1.1740123 0.061547089
0.024258047 -1.0143176 -0.053173337
0.027669868 -1.165494 -0.020349504
0.025130054 -1.1335489 0.019791029
0.0253141 -1.1601313 0.060814388
0.020482972 -0.9944241 -0.052126616
0.023682438 -1.1695821 -0.020419316
0.021434441 -1.147625 0.020035362
0.021154638 -1.1542219 0.060500368
0.016973317 -1.0024805 -0.052545305
0.019599659 -1.1696577 -0.020419316
0.017258037 -1.1496954 0.020070268
0.016748361 -1.1423094 0.05987234
0.013722779 -1.0344892 -0.054220054
0.015050746 -1.1497265 -0.020070268
0.012998685 -1.1457517 0.020000458
0.012627474 -1.1483546 0.060186356
0.0099555841 -1.0185536 -0.053382684
0.010874358 -1.1537731 -0.020140078
0.0088736443 -1.129793 0.019721219
0.0087236455 -1.1623721 0.060919058
0.0095078982 -1.2970108 0.11347678
0.0066008661 -1.0505376 -0.055057433
0.0068469779 -1.1538041 -0.020140078
0.0049298457 -1.1298171 0.019721219
0.004835662 -1.1544056 0.060500368
0.0049113859 -1.2791046 0.11190797
0.0026883285 -0.96267515 -0.050451867
0.0030416851 -1.1618192 -0.020279696
0.0011853959 -1.1318271 0.019756125
0.0010022152 -1.1484237 0.060186356
0.00067590456 -1.2910682 0.11295383
-0.0005040692 -0.96267879 -0.050451867
-0.00079993886 -1.1458253 -0.020000458
-0.0025724648 -1.1338245 0.019791029
-0.0029804255 -1.1384339 0.059662998
-0.0035996137 -1.289071 0.11277953
-0.0040338975 -1.0505506 -0.055057433
-0.0048162588 -1.1498148 -0.020070268
-0.0065417839 -1.1358082 0.019825934
-0.0069909156 -1.1444081 0.05997701
-0.0081119966 -1.2910428 0.11295383
-0.0074959169 -1.0225692 -0.053592026
-0.0087377252 -1.1377931 -0.019860838
-0.010377006 -1.1217812 0.019581601
-0.011023844 -1.1483711 0.060186356
-0.012559993 -1.2850299 0.11243091
-0.011021988 -1.0185426 -0.053382684
-0.012664672 -1.1337565 -0.019791029
-0.014292588 -1.1217382 0.019581601
-0.0151108 -1.1543169 0.060500368
-0.017098397 -1.2889626 0.11277953
-0.014634613 -1.0224921 -0.053592026
-0.016680807 -1.1377044 -0.019860838
-0.018240718 -1.1236808 0.019616505
-0.018941373 -1.1422752 0.05987234
-0.021764556 -1.2988555 0.11365108
-0.017990272 -1.0104531 -0.052963994
-0.020833541 -1.1476361 -0.020035362
-0.02236006 -1.1336068 0.019791029
-0.022768233 -1.1342146 0.059453651
-0.026177155 -1.2927959 0.11312816
-0.021772597 -1.022365 -0.053592026
-0.024579665 -1.1355611 -0.019825934
-0.026224151 -1.1295235 0.019721219
-0.026915358 -1.1421151 0.05987234
-0.030311579 -1.2767619 0.11173366
-0.026330974 -1.0622156 -0.055685461
-0.028442891 -1.1314703 -0.019756125
-0.029953232 -1.1214293 0.019581601
-0.030793905 -1.1380212 0.059662998
-0.034984972 -1.284615 0.11243091
-0.030377325 -1.074096 -0.056313496
-0.032449547 -1.1333629 -0.019791029
-0.033746723 -1.1173203 0.019511791
-0.035254128 -1.1538773 0.060500368
-0.039591163 -1.2884678 0.11277953
-0.033745997 -1.0620058 -0.055685461
-0.036662251 -1.1412375 -0.01993065
-0.037916247 -1.12519 0.019651409
-0.03860198 -1.1337862 0.059453651
-0.044156846 -1.2903129 0.11295383
-0.038015984 -1.0778497 -0.056522839
-0.040645856 -1.1411024 -0.01993065
-0.041694913 -1.1210542 0.019581601
-0.042634491 -1.1356404 0.059558321
-0.048735593 -1.2921422 0.11312816
-0.041932922 -1.081702 -0.056732185
-0.044550542 -1.1389556 -0.019895744
-0.046176843 -1.1348879 0.019825934
-0.046680152 -1.1374803 0.059662998
-0.052917726 -1.2840014 0.11243091
-0.045539871 -1.077558 -0.056522839
-0.047929928 -1.124808 -0.019651409
-0.049343783 -1.1167402 0.019511791
-0.051248569 -1.1552769 0.060605045
-0.057132315 -1.2778374 0.11190797
-0.049118277 -1.0734022 -0.056313496
-0.052210245 -1.1366282 -0.019860838
-0.052951906 -1.1145729 0.019476885
-0.054612618 -1.1411262 0.05987234
-0.062167957 -1.2895707 0.11295383
-0.052090097 -1.0612643 -0.055685461
-0.056374997 -1.1404337 -0.01993065
-0.056536462 -1.10839 0.019372171
-0.05839058 -1.1369394 0.059662998
-0.05243814 -0.99725181 -0.052335959
-0.060144134 -1.136236 -0.019860838
-0.061166886 -1.1221631 0.019616505
-0.062140107 -1.13274 0.059453651
-0.057261087 -1.0209923 -0.053592026
-0.063884668 -1.1320262 -0.019791029
-0.064852141 -1.11795 0.019546695
-0.066093765 -1.1325161 0.059453651
-0.075210989 -1.2848842 0.11260521
-0.060824577 -1.0207862 -0.053592026
-0.067596532 -1.1278039 -0.019721219
-0.0678946 -1.1037455 0.019302363
-0.070786536 -1.1442392 0.060081679
-0.079325393 -1.2786483 0.11208228
-0.063633025 -1.0086079 -0.052963994
-0.072039209 -1.1355438 -0.019860838
-0.072136365 -1.1094881 0.019407077
-0.075170986 -1.1499642 0.060395699
-0.084439956 -1.2883041 0.11295383
-0.065826096 -0.98845106 -0.051917274
-0.076136179 -1.1372808 -0.019895744
-0.077102304 -1.1251897 0.019686313
-0.077812336 -1.1297694 0.059348982
-0.08916112 -1.2879859 0.11295383
-0.073649049 -1.0479736 -0.055057433
-0.080246128 -1.1390029 -0.01993065
-0.080937795 -1.1209105 0.019616505
-0.082097173 -1.1314687 0.059453651
-0.093078405 -1.2797184 0.1122566
-0.078482509 -1.0636449 -0.055894807
-0.084124565 -1.1347126 -0.019860838
-0.085604802 -1.1305912 0.019791029
-0.086652227 -1.1391412 0.05987234
-0.09603025 -1.2595193 0.11051348
-0.077577055 -1.0036248 -0.052754648
-0.087465607 -1.1264372 -0.019721219
-0.087971441 -1.110351 0.019441981
-0.091061696 -1.1468116 0.06029103
-0.10026784 -1.2571905 0.11033916
-0.083332136 -1.0312186 -0.054220054
-0.092169084 -1.1381001 -0.01993065
-0.092146687 -1.1160318 0.019546695
-0.094899118 -1.1444963 0.060186356
-0.10482086 -1.2588183 0.11051348
-0.085411578 -1.015015 -0.053382684
-0.096814625 -1.1457418 -0.020070268
-0.097070865 -1.1276574 0.019756125
-0.097689547 -1.1302292 0.059453651
-0.10916664 -1.2604487 0.11068779
-0.084419116 -0.96298021 -0.05066121
-0.1002876 -1.139421 -0.019965554
-0.10047106 -1.1213366 0.019651409
-0.10199223 -1.1338599 0.059662998
-0.11374464 -1.2620443 0.11086211
-0.089956418 -0.98654777 -0.051917274
-0.10371736 -1.1330897 -0.019860838
-0.10531184 -1.1309344 0.019825934
-0.10687879 -1.1434399 0.060186356
-0.11684895 -1.2477536 0.10964192
-0.094152808 -0.9941811 -0.052335959
-0.10805058 -1.1367023 -0.01993065
-0.10810465 -1.1186173 0.019616505
-0.11299063 -1.1649269 0.061337747
-0.096841626 -0.98589569 -0.051917274
-0.11260618 -1.1422882 -0.020035362
-0.11161011 -1.1142536 0.019546695
-0.11545816 -1.1486275 0.060500368
-0.097451933 -0.95773363 -0.050451867
-0.11862396 -1.1617819 -0.020384412
-0.11735517 -1.1317585 0.019860838
-0.11884674 -1.1422579 0.060186356
-0.10664965 -1.0130036 -0.053382684
-0.12141837 -1.1494288 -0.020174982
-0.12173131 -1.1353186 0.01993065
-0.12347428 -1.1477934 0.060500368
-0.10629617 -0.97688538 -0.051498584
-0.12521279 -1.1470102 -0.020140078
-0.12679425 -1.1448245 0.020105172
-0.12814163 -1.1533105 0.060814388
-0.11550296 -1.0281125 -0.054220054
-0.1298877 -1.1525275 -0.020244792
-0.12922953 -1.132477 0.019895744
-0.13310117 -1.1628008 0.061337747
-0.11707526 -1.0118517 -0.053382684
-0.13463095 -1.160036 -0.020384412
-0.13248102 -1.126061 0.019791029
-0.13856353 -1.1742301 0.061965775
-0.11746736 -0.9836514 -0.051917274
-0.14010437 -1.1714721 -0.020593841
-0.14022118 -1.1553447 0.0203146
-0.1412158 -1.1618433 0.061337747
-0.11066274 -0.89997751 -0.047521055
-0.14345941 -1.1650218 -0.020489125
-0.14306167 -1.1469361 0.020174982
-0.14626203 -1.1692705 0.061756436
-0.11715111 -0.92734677 -0.048986461
-0.14928465 -1.1784008 -0.020733459
-0.14680997 -1.1444464 0.020140078
-0.15110715 -1.1746957 0.062070452
-0.12038747 -0.92693216 -0.048986461
-0.15288052 -1.1739066 -0.020663649
-0.1502811 -1.1399618 0.020070268
-0.1559919 -1.1801012 0.062384464
-0.12890537 -0.96610057 -0.051079899
-0.15883335 -1.1872401 -0.020907983
-0.15506439 -1.1453751 0.020174982
-0.16145337 -1.189445 0.062907822
-0.12306081 -0.89836621 -0.047521055
-0.16542554 -1.2045084 -0.021222128
-0.16043741 -1.1547302 0.020349504
-0.16532893 -1.186896 0.062803157
-0.13342306 -0.94935453 -0.050242521
-0.16962893 -1.2039236 -0.021222128
-0.1686988 -1.1838586 0.020873079
-0.17003579 -1.1902661 0.063012503
-0.13673612 -0.94888306 -0.050242521
-0.1735445 -1.201345 -0.021187222
-0.17109616 -1.1713902 0.020663649
-0.1336287 -0.9049316 -0.04793974
-0.1789082 -1.2086443 -0.02132684
-0.1731125 -1.1569422 0.020419316
-0.13081339 -0.86496359 -0.045846302
-0.18852082 -1.2436004 -0.021955127
-0.17926969 -1.1701672 0.020663649
-0.13566521 -0.8763442 -0.046474334
-0.35046068 -2.2586238 -0.039896201
-0.18614073 -1.1873144 0.020977791
-0.14184782 -0.89559197 -0.047521055
-0.36398584 -2.2929363 -0.040524486
-0.19250046 -1.2004789 0.021222128
-0.13347742 -0.82411498 -0.043752864
-0.3662203 -2.2561221 -0.039896201
-0.1428775 -0.86305279 -0.045846302
-0.37867555 -2.2824485 -0.04038487
-0.15121846 -0.89405745 -0.047521055
-0.38463521 -2.2692833 -0.040175438
-0.15093878 -0.87384307 -0.046474334
-0.39937526 -2.3073344 -0.040873535
-0.14497094 -0.82217097 -0.043752864
-0.4046436 -2.2901731 -0.040594298
-0.14783989 -0.82165998 -0.043752864
-0.40089324 -2.2258415 -0.039477345
-0.15056382 -0.82116514 -0.043752864
-0.41043818 -2.2363009 -0.039686773
-0.41235608 -2.2034056 -0.039128296
-0.15629297 -0.82009405 -0.043752864
-0.42978704 -2.2530241 -0.040035821
-0.16524665 -0.85091358 -0.045427613
-0.42429349 -2.1807697 -0.038779248
-0.16448496 -0.83070999 -0.044380896
-0.42490569 -2.1439676 -0.038150962
-0.17118312 -0.84973919 -0.045427613
-0.43001339 -2.1307099 -0.03794153
-0.17575321 -0.85696262 -0.045846302
-0.44469225 -2.164454 -0.038569819
-0.17711124 -0.84852338 -0.045427613
-0.46288604 -2.2137802 -0.039477345
-0.17343339 -0.81664103 -0.043752864
-0.46728173 -2.1965034 -0.039198104
-0.17628297 -0.81603062 -0.043752864
-0.46442109 -2.1480331 -0.038360391
-0.1789881 -0.81544155 -0.043752864
-0.46590444 -2.1190562 -0.037871722
-0.18183334 -0.81481183 -0.043752864
-0.46108463 -2.0627739 -0.036894388
-0.18481867 -0.8141399 -0.043752864
-0.51967347 -2.2873521 -0.040943347
